-4.913515 -4.267508 -4.812491 -4.780887 -4.749865 -4.715539 -4.678203 -4.640867 -4.603531 -4.565194 -4.512666 -4.460857 -4.409348 -4.358498 -4.307648 -4.257124 -4.206937 -4.156751 -4.106564 -4.056377 -4.006191 -3.956004 -3.905818 -3.855631 -3.805235 -3.753948 -3.702662 -3.651375 -3.600089 -3.548802 -3.497515 -3.446229 -3.394539 -3.338847 -3.283220 -3.227592 -3.171964 -3.116336 -3.060709 -3.005081 -2.949453 -2.893902 -2.838612 -2.783321 -2.724276 -2.663876 -2.603477 -2.543078 -2.480898 -2.414915 -2.350448 -2.285980 -2.221513 -2.157046 -2.092579 -2.028112 -1.962144 -1.894684 -1.827224 -1.759764 -1.692303 -1.666612 -1.668486 -1.682298 -1.697119 -1.709894 -1.720711 -1.731528 -1.742345 -1.732644 -1.656938 -1.579179 -1.469690 -1.360202 -1.250714 -1.141225 -1.071924 -1.050298 -1.028672 -1.007046 -1.000000 -1.000000 -1.000000 -0.905037 -0.699109 -0.493181 -0.287253 -0.132864 0.014860 0.162583 0.275995 0.284920 0.298174 0.324121 0.350068 0.376015 0.401962 0.424976 0.442222 0.459467 0.476712 0.493958 0.520158 0.562117 0.603948 0.633507 0.663067 0.614257 0.491728 0.369199 0.246670 0.120199 -0.146799 -0.447966 -0.749134 -1.050301 -1.329490 -1.336113 -1.342737 -1.349361 -1.335915 -1.345044 -1.371755 -1.399155 -1.426556 -1.453716 -1.480062 -1.500000 -1.500000 -1.500000 -1.500000 -1.500000 -1.500000 -1.496450 -1.487088 -1.487568 -1.495466 -1.500000 -1.500000 -1.500000 -1.500000 -1.500000 -1.500000 -1.500000 -1.500000 -1.500000 -1.500000 -1.349651 -1.130795 -0.911939 -0.693084 -0.474228 -0.255372 -0.134863 -0.182338 -0.229843 -0.277347 -0.324852 -0.372357 -0.418166 -0.448018 -0.477871 -0.507723 -0.538295 -0.573239 -0.607288 -0.625718 -0.644147 -0.662577 -0.678849 -0.694422 -0.708843 -0.718419 -0.729021 -0.739833 -0.750645 -0.761457 -0.772597 -0.784094 -0.795524 -0.806890 -0.818257 -0.829623 -0.844721 -0.861622 -0.879572 -0.898094 -0.917098 -0.940440 -0.967065 -0.993689 -1.020479 -1.050756 -1.081032 -1.114930 -1.151180 -1.189607 -1.228033 -1.266460 -1.305339 -1.354502 -1.403973 -1.453444 -1.502806 -1.551842 -1.606404 -1.665135 -1.721803 -1.777028 -1.832253 -1.888997 -1.947674 -2.004565 -2.061456 -2.118347 -2.174829 -2.229049 -2.283269 -2.337490 -2.390997 -2.425784 -2.452620 -2.483005 -2.513389 -2.543773 -2.562763 -2.567826 -2.550275 -2.532724 -2.507740 -2.472519 -2.437298 -2.388742 -2.318927 -2.238893 -2.158860 -2.078826 -1.999445 -1.909029 -1.810163 -1.711296 -1.612430 -1.513909 -1.417975 -1.325677 -1.234805 -1.143932 -1.056284 -0.998815 -0.875816
-4.267508 -4.267508 -4.807073 -4.775465 -4.744313 -4.711524 -4.674188 -4.636853 -4.599517 -4.562181 -4.516912 -4.464643 -4.412856 -4.361591 -4.310742 -4.260023 -4.209742 -4.159461 -4.109180 -4.058899 -4.008685 -3.958499 -3.908312 -3.858125 -3.807939 -3.757752 -3.707565 -3.656797 -3.605511 -3.554224 -3.502938 -3.451651 -3.399256 -3.344984 -3.290712 -3.236440 -3.180184 -3.123473 -3.066762 -3.010180 -2.954552 -2.898925 -2.843297 -2.787669 -2.732278 -2.675450 -2.615050 -2.554571 -2.491626 -2.428682 -2.365738 -2.302134 -2.235703 -2.169271 -2.102840 -2.036686 -1.972219 -1.907752 -1.842835 -1.775375 -1.707915 -1.702688 -1.704562 -1.706436 -1.708310 -1.714945 -1.729767 -1.744588 -1.759409 -1.774231 -1.789052 -1.775362 -1.674932 -1.565443 -1.455955 -1.346467 -1.236978 -1.127490 -1.025103 -1.003477 -1.000000 -1.000000 -1.000000 -1.000000 -1.000000 -1.000000 -0.806425 -0.658701 -0.510977 -0.363254 -0.193537 -0.016821 0.130697 0.192743 0.235453 0.278163 0.320873 0.351723 0.364198 0.376672 0.391132 0.408378 0.437119 0.479078 0.521038 0.562997 0.599300 0.549525 0.422462 0.293042 0.163621 0.034200 -0.230999 -0.550152 -0.869306 -1.188459 -1.500000 -1.481040 -1.461254 -1.441467 -1.421680 -1.427710 -1.454340 -1.480969 -1.500000 -1.500000 -1.500000 -1.500000 -1.500000 -1.500000 -1.500000 -1.500000 -1.500000 -1.500000 -1.500000 -1.500000 -1.500000 -1.500000 -1.500000 -1.500000 -1.500000 -1.500000 -1.500000 -1.500000 -1.500000 -1.500000 -1.500000 -1.392538 -1.189019 -0.985500 -0.781981 -0.578461 -0.374942 -0.217888 -0.260350 -0.302813 -0.345275 -0.391674 -0.439179 -0.486683 -0.517634 -0.547487 -0.577339 -0.607192 -0.635798 -0.661469 -0.676316 -0.691888 -0.707461 -0.723034 -0.738606 -0.754106 -0.763682 -0.773258 -0.782835 -0.792659 -0.803471 -0.814456 -0.825905 -0.837271 -0.848637 -0.860672 -0.873358 -0.890558 -0.909080 -0.927602 -0.946124 -0.968276 -0.990793 -1.016888 -1.043513 -1.072814 -1.103091 -1.133367 -1.164973 -1.202498 -1.240924 -1.280619 -1.320397 -1.361663 -1.408360 -1.457831 -1.507302 -1.556447 -1.605483 -1.655415 -1.714145 -1.769408 -1.824633 -1.879450 -1.932552 -1.986374 -2.041198 -2.097264 -2.154155 -2.211046 -2.266170 -2.320390 -2.365266 -2.403936 -2.442606 -2.471083 -2.497892 -2.524700 -2.551509 -2.555797 -2.537267 -2.519716 -2.502165 -2.484613 -2.449813 -2.396253 -2.327774 -2.259295 -2.183282 -2.103249 -2.023215 -1.931070 -1.832479 -1.732160 -1.631841 -1.531522 -1.431203 -1.336578 -1.245706 -1.154833 -1.063961 -0.973089 -0.932797 -0.875816
-4.289303 -4.289303 -4.801557 -4.770104 -4.738761 -4.707510 -4.670174 -4.632838 -4.595502 -4.558166 -4.520831 -4.468630 -4.416642 -4.364855 -4.313835 -4.263149 -4.212868 -4.162587 -4.112306 -4.062025 -4.011744 -3.961463 -3.911182 -3.860901 -3.810620 -3.760339 -3.710060 -3.659873 -3.609686 -3.559500 -3.508360 -3.457073 -3.403973 -3.349701 -3.295429 -3.241158 -3.186886 -3.132614 -3.078319 -3.021608 -2.964897 -2.908186 -2.851475 -2.794763 -2.738052 -2.681513 -2.625945 -2.565299 -2.502355 -2.439411 -2.376466 -2.313522 -2.250578 -2.187633 -2.122934 -2.056502 -1.990071 -1.923640 -1.857209 -1.790778 -1.735788 -1.738764 -1.740638 -1.742512 -1.744386 -1.746259 -1.748133 -1.750007 -1.762414 -1.777235 -1.792057 -1.756427 -1.662537 -1.568646 -1.474441 -1.379445 -1.284450 -1.189454 -1.094459 -1.000000 -1.000000 -1.000000 -1.000000 -1.000000 -1.000000 -1.000000 -0.980688 -0.891982 -0.786067 -0.609351 -0.432635 -0.255919 -0.119855 -0.012507 0.094840 0.202188 0.253275 0.279767 0.292242 0.304716 0.315977 0.326768 0.342524 0.367158 0.400908 0.434659 0.468410 0.413143 0.297289 0.181434 0.065580 -0.051799 -0.309019 -0.605282 -0.901546 -1.197809 -1.494072 -1.500000 -1.500000 -1.500000 -1.500000 -1.500000 -1.500000 -1.500000 -1.500000 -1.500000 -1.500000 -1.500000 -1.500000 -1.500000 -1.500000 -1.500000 -1.500000 -1.500000 -1.500000 -1.500000 -1.500000 -1.500000 -1.500000 -1.500000 -1.500000 -1.500000 -1.512592 -1.541983 -1.571375 -1.600766 -1.630157 -1.570736 -1.344716 -1.118696 -0.902305 -0.698786 -0.495267 -0.300912 -0.343374 -0.385837 -0.428299 -0.470762 -0.513224 -0.554960 -0.582544 -0.608216 -0.633887 -0.659559 -0.685230 -0.710901 -0.727203 -0.740150 -0.753096 -0.767218 -0.782791 -0.798364 -0.808945 -0.818521 -0.828098 -0.837674 -0.847250 -0.857150 -0.869523 -0.881895 -0.894268 -0.906641 -0.922193 -0.938588 -0.957110 -0.975632 -0.996936 -1.019454 -1.041971 -1.066712 -1.094873 -1.125150 -1.155426 -1.185806 -1.217524 -1.256562 -1.296340 -1.336118 -1.376365 -1.418672 -1.462218 -1.511689 -1.561053 -1.610089 -1.659125 -1.708160 -1.761788 -1.816492 -1.871157 -1.925821 -1.977359 -2.029234 -2.084058 -2.138881 -2.193704 -2.248528 -2.300864 -2.339534 -2.378205 -2.416875 -2.455545 -2.489574 -2.516382 -2.543191 -2.544308 -2.541741 -2.522555 -2.500961 -2.479367 -2.457773 -2.403764 -2.335285 -2.266806 -2.198327 -2.127671 -2.047638 -1.953411 -1.855311 -1.757210 -1.657517 -1.557198 -1.456879 -1.356904 -1.257652 -1.166653 -1.075653 -0.984654 -0.893654 -0.866778 -0.875816
-4.289303 -4.289303 -4.796039 -4.764754 -4.733270 -4.702639 -4.666160 -4.628824 -4.591488 -4.554152 -4.516816 -4.472876 -4.420428 -4.368641 -4.316928 -4.266276 -4.215995 -4.165714 -4.115433 -4.065152 -4.014871 -3.964590 -3.914309 -3.864028 -3.813747 -3.763466 -3.713185 -3.662904 -3.612624 -3.562442 -3.512260 -3.462078 -3.408635 -3.354418 -3.300147 -3.245875 -3.191603 -3.137331 -3.083059 -3.028788 -2.974516 -2.919743 -2.863032 -2.806321 -2.749609 -2.692898 -2.636187 -2.576989 -2.516297 -2.454285 -2.389640 -2.324996 -2.261306 -2.198362 -2.135417 -2.072473 -2.009529 -1.943733 -1.877302 -1.810871 -1.772058 -1.766332 -1.760607 -1.754881 -1.759379 -1.765792 -1.772205 -1.778618 -1.785031 -1.789831 -1.795061 -1.737394 -1.643503 -1.549612 -1.455722 -1.361831 -1.267940 -1.173519 -1.078524 -1.000000 -1.000000 -1.000000 -1.000000 -1.000000 -1.000000 -1.000000 -0.965672 -0.876966 -0.788260 -0.699555 -0.610849 -0.495017 -0.370406 -0.267649 -0.169605 -0.071562 0.026482 0.113964 0.196321 0.222415 0.233205 0.243996 0.260510 0.280133 0.299756 0.319380 0.339003 0.281257 0.183427 0.085598 -0.012232 -0.110061 -0.336624 -0.619515 -0.902407 -1.186089 -1.482353 -1.500000 -1.500000 -1.500000 -1.500000 -1.500000 -1.500000 -1.500000 -1.500000 -1.500000 -1.500000 -1.500000 -1.500000 -1.500000 -1.500000 -1.500000 -1.500000 -1.500000 -1.500000 -1.500000 -1.500000 -1.511960 -1.543994 -1.576028 -1.608062 -1.638852 -1.667398 -1.695943 -1.725259 -1.754650 -1.784041 -1.764262 -1.538242 -1.312222 -1.086202 -0.860182 -0.634162 -0.412073 -0.424582 -0.462313 -0.500044 -0.537775 -0.575506 -0.613237 -0.640542 -0.662348 -0.684153 -0.708991 -0.734662 -0.760334 -0.778494 -0.791440 -0.804387 -0.817334 -0.830281 -0.843227 -0.854344 -0.864199 -0.874055 -0.883910 -0.893766 -0.903621 -0.915492 -0.927864 -0.940237 -0.955422 -0.971027 -0.986632 -1.005139 -1.025596 -1.048114 -1.070631 -1.093149 -1.116932 -1.147613 -1.178388 -1.209163 -1.239938 -1.274791 -1.312061 -1.351839 -1.391616 -1.433374 -1.475681 -1.517988 -1.565546 -1.614695 -1.663731 -1.712157 -1.759875 -1.808198 -1.862863 -1.917528 -1.971319 -2.022167 -2.073015 -2.126918 -2.181741 -2.236564 -2.280151 -2.323202 -2.361016 -2.396498 -2.431981 -2.468484 -2.507155 -2.529255 -2.526688 -2.524121 -2.521554 -2.510908 -2.489314 -2.467719 -2.415546 -2.358812 -2.286969 -2.215127 -2.143284 -2.071441 -1.975753 -1.877652 -1.779552 -1.681451 -1.582875 -1.482556 -1.382606 -1.282727 -1.182848 -1.087730 -0.996731 -0.905731 -0.827848 -0.800760 -0.875816
-4.289303 -4.289303 -4.790520 -4.759404 -4.727848 -4.697088 -4.662145 -4.624809 -4.587473 -4.550138 -4.512802 -4.475466 -4.424594 -4.372427 -4.320640 -4.269531 -4.219379 -4.169198 -4.119016 -4.068834 -4.018653 -3.968471 -3.918289 -3.868108 -3.817926 -3.767744 -3.717562 -3.667381 -3.617199 -3.567017 -3.516836 -3.466654 -3.412848 -3.358647 -3.304445 -3.250244 -3.196042 -3.141841 -3.087639 -3.033438 -2.979233 -2.924961 -2.870689 -2.816418 -2.761167 -2.704455 -2.647744 -2.587618 -2.526927 -2.466235 -2.405543 -2.344852 -2.282727 -2.218083 -2.153438 -2.088793 -2.024149 -1.959504 -1.894860 -1.830964 -1.808328 -1.802602 -1.796876 -1.791151 -1.785425 -1.779700 -1.773974 -1.779948 -1.786361 -1.792774 -1.799187 -1.718287 -1.624716 -1.531029 -1.437089 -1.343148 -1.249208 -1.155267 -1.061327 -1.000000 -1.000000 -1.000000 -1.000000 -1.000000 -1.000000 -1.000000 -1.000000 -0.964927 -0.897209 -0.829492 -0.761775 -0.694057 -0.626108 -0.558137 -0.485815 -0.387771 -0.289728 -0.204299 -0.121942 -0.039585 0.042772 0.124116 0.175938 0.193334 0.210730 0.228125 0.245521 0.195423 0.111594 0.027765 -0.056424 -0.154253 -0.379668 -0.660909 -0.933375 -1.205842 -1.478308 -1.500000 -1.500000 -1.500000 -1.500000 -1.500000 -1.500000 -1.500000 -1.500000 -1.500000 -1.500000 -1.500000 -1.500000 -1.500000 -1.500000 -1.500000 -1.500000 -1.500000 -1.500000 -1.500000 -1.585504 -1.668018 -1.700053 -1.732087 -1.764121 -1.795461 -1.824006 -1.852551 -1.881097 -1.909642 -1.938187 -1.957788 -1.731768 -1.492522 -1.250697 -1.008872 -0.767047 -0.525222 -0.490793 -0.524061 -0.558321 -0.596052 -0.633783 -0.671514 -0.700842 -0.722647 -0.744453 -0.766258 -0.788064 -0.809869 -0.829784 -0.842120 -0.853647 -0.865175 -0.876702 -0.888229 -0.899375 -0.910094 -0.920591 -0.930446 -0.940302 -0.950157 -0.961461 -0.973833 -0.988652 -1.004257 -1.019862 -1.035467 -1.054256 -1.076774 -1.099206 -1.121627 -1.144047 -1.171344 -1.201745 -1.232521 -1.263296 -1.296775 -1.332057 -1.367560 -1.407337 -1.448076 -1.490383 -1.532690 -1.574997 -1.619157 -1.666876 -1.714594 -1.762312 -1.809857 -1.857098 -1.909234 -1.963899 -2.016126 -2.066975 -2.117823 -2.169778 -2.215716 -2.258767 -2.301818 -2.344869 -2.386302 -2.421784 -2.457267 -2.492750 -2.513684 -2.516631 -2.510052 -2.503933 -2.501367 -2.498800 -2.474451 -2.418903 -2.363355 -2.307807 -2.242233 -2.170391 -2.097332 -2.004291 -1.909664 -1.809558 -1.709452 -1.609347 -1.509241 -1.408307 -1.308428 -1.208549 -1.108670 -1.008808 -0.917809 -0.839816 -0.764205 -0.734741 -0.875816
-4.289303 -4.289303 -4.785002 -4.754054 -4.722426 -4.691536 -4.658131 -4.620795 -4.583459 -4.546123 -4.508787 -4.471451 -4.428841 -4.376312 -4.324426 -4.273226 -4.223149 -4.173072 -4.122995 -4.072917 -4.022840 -3.972763 -3.922686 -3.872608 -3.822501 -3.772320 -3.722138 -3.671956 -3.621775 -3.571593 -3.521411 -3.471230 -3.417062 -3.362860 -3.308659 -3.254457 -3.200256 -3.146055 -3.091853 -3.037652 -2.983450 -2.929249 -2.875047 -2.820846 -2.766805 -2.712961 -2.658789 -2.598611 -2.537556 -2.476864 -2.416173 -2.355481 -2.294789 -2.234098 -2.173406 -2.111169 -2.046525 -1.981880 -1.917236 -1.852591 -1.837311 -1.824790 -1.812917 -1.811286 -1.809656 -1.808025 -1.806394 -1.804518 -1.798793 -1.794105 -1.792444 -1.698872 -1.605301 -1.511730 -1.418158 -1.324587 -1.230920 -1.136979 -1.043039 -1.000000 -1.000000 -1.000000 -1.000000 -1.000000 -1.000000 -1.000000 -1.000000 -1.000000 -1.000000 -1.000000 -0.981036 -0.913298 -0.845327 -0.777356 -0.709846 -0.643343 -0.576839 -0.530726 -0.459877 -0.382523 -0.305169 -0.227815 -0.143822 -0.058275 0.027273 0.112820 0.150225 0.096593 0.017554 -0.048344 -0.114241 -0.180139 -0.388911 -0.659320 -0.929938 -1.202404 -1.474870 -1.500000 -1.500000 -1.500000 -1.500000 -1.500000 -1.500000 -1.500000 -1.500000 -1.500000 -1.500000 -1.500000 -1.500000 -1.500000 -1.500000 -1.500000 -1.500000 -1.500000 -1.500000 -1.500000 -1.573113 -1.659132 -1.745150 -1.831169 -1.917187 -1.952070 -1.980615 -2.000000 -2.000000 -2.000000 -2.000000 -2.000000 -1.807191 -1.591015 -1.357680 -1.115855 -0.874030 -0.632205 -0.562108 -0.595376 -0.628645 -0.661914 -0.695182 -0.729791 -0.761141 -0.782947 -0.802724 -0.821440 -0.840156 -0.858872 -0.875379 -0.886571 -0.897899 -0.909427 -0.920954 -0.932482 -0.943774 -0.954493 -0.965211 -0.975930 -0.986649 -0.996693 -1.007430 -1.021881 -1.037486 -1.052947 -1.068028 -1.083738 -1.105143 -1.127564 -1.149984 -1.172404 -1.198547 -1.226459 -1.255878 -1.286653 -1.318759 -1.354041 -1.389323 -1.424605 -1.462836 -1.505085 -1.546961 -1.587379 -1.627797 -1.670092 -1.717031 -1.764749 -1.812468 -1.859774 -1.907015 -1.955605 -2.010086 -2.060934 -2.111782 -2.157956 -2.200807 -2.241325 -2.281898 -2.323486 -2.366537 -2.409588 -2.447070 -2.481119 -2.492140 -2.503161 -2.514182 -2.507662 -2.501084 -2.494505 -2.477609 -2.427623 -2.368245 -2.311164 -2.255616 -2.197498 -2.121207 -2.028166 -1.935125 -1.842084 -1.743901 -1.643795 -1.543648 -1.439836 -1.336656 -1.236344 -1.136032 -1.035721 -0.935409 -0.851784 -0.776173 -0.700562 -0.668723 -0.875816
-4.289303 -4.289303 -4.779484 -4.748705 -4.717004 -4.685984 -4.654116 -4.616781 -4.579445 -4.542109 -4.504773 -4.467437 -4.430101 -4.380559 -4.328212 -4.276922 -4.226845 -4.176767 -4.126690 -4.076613 -4.026536 -3.976458 -3.926381 -3.876304 -3.826227 -3.776149 -3.726072 -3.675995 -3.625918 -3.575840 -3.525718 -3.475311 -3.422235 -3.368573 -3.314729 -3.260886 -3.207042 -3.153199 -3.099355 -3.045512 -2.991668 -2.937824 -2.883981 -2.830137 -2.776294 -2.722450 -2.667657 -2.609515 -2.551374 -2.493232 -2.433856 -2.371885 -2.309915 -2.247944 -2.185974 -2.124003 -2.062652 -2.001960 -1.939612 -1.883625 -1.871104 -1.858583 -1.846062 -1.833541 -1.821020 -1.808499 -1.806048 -1.804417 -1.802787 -1.801156 -1.772852 -1.679647 -1.586442 -1.492828 -1.399193 -1.305557 -1.211921 -1.118286 -1.024650 -1.000000 -1.000000 -1.000000 -1.000000 -1.000000 -1.000000 -1.000000 -1.000000 -1.000000 -1.000000 -1.000000 -1.000000 -1.000000 -1.000000 -1.000000 -0.940794 -0.874291 -0.808799 -0.764209 -0.719619 -0.675028 -0.630438 -0.579746 -0.487872 -0.383228 -0.278583 -0.173939 -0.069294 -0.046635 -0.052525 -0.058415 -0.115376 -0.181274 -0.393568 -0.663977 -0.934412 -1.205271 -1.476131 -1.500000 -1.500000 -1.500000 -1.500000 -1.500000 -1.500000 -1.500000 -1.500000 -1.500000 -1.500000 -1.500000 -1.500000 -1.500000 -1.500000 -1.500000 -1.500000 -1.500000 -1.500000 -1.500000 -1.560722 -1.646741 -1.732680 -1.818587 -1.904494 -1.990400 -2.000000 -2.000000 -2.000000 -2.000000 -2.000000 -2.000000 -1.838048 -1.621872 -1.405696 -1.189520 -0.973344 -0.739187 -0.633423 -0.666692 -0.699535 -0.728416 -0.757297 -0.786178 -0.811831 -0.828677 -0.846675 -0.865391 -0.884107 -0.902823 -0.920473 -0.931665 -0.942856 -0.954048 -0.965239 -0.976734 -0.988172 -0.998891 -1.009610 -1.020328 -1.031020 -1.041241 -1.054124 -1.069206 -1.084287 -1.099368 -1.114450 -1.135043 -1.155921 -1.178342 -1.200762 -1.225750 -1.253662 -1.281575 -1.310010 -1.340785 -1.376026 -1.411308 -1.446589 -1.480671 -1.517186 -1.557603 -1.598021 -1.638439 -1.679815 -1.722503 -1.767187 -1.814905 -1.862450 -1.909691 -1.956932 -2.004172 -2.054894 -2.100217 -2.145397 -2.190577 -2.231461 -2.271849 -2.312422 -2.352995 -2.393568 -2.434141 -2.460442 -2.470596 -2.481617 -2.492638 -2.503659 -2.505273 -2.498694 -2.473753 -2.434030 -2.393075 -2.333696 -2.274317 -2.214938 -2.146399 -2.054436 -1.959000 -1.865959 -1.772918 -1.678243 -1.577689 -1.473877 -1.370066 -1.266254 -1.164725 -1.064414 -0.964102 -0.875924 -0.789161 -0.712530 -0.639459 -0.608778 -0.500892
-4.293232 -4.293232 -4.773965 -4.743355 -4.711582 -4.680433 -4.649863 -4.612766 -4.575430 -4.538094 -4.500759 -4.463423 -4.426087 -4.384805 -4.332277 -4.280617 -4.230540 -4.180463 -4.130386 -4.080308 -4.030231 -3.980130 -3.929920 -3.879710 -3.829500 -3.779290 -3.729080 -3.678870 -3.628660 -3.578450 -3.528240 -3.477836 -3.424760 -3.371684 -3.318608 -3.265532 -3.212456 -3.159380 -3.106304 -3.053228 -3.000152 -2.947076 -2.893470 -2.839627 -2.785783 -2.731940 -2.676525 -2.618383 -2.560242 -2.502100 -2.443959 -2.385817 -2.327676 -2.269100 -2.207130 -2.145159 -2.083189 -2.021218 -1.959247 -1.887917 -1.800677 -1.738323 -1.761795 -1.785267 -1.808739 -1.832211 -1.829771 -1.817250 -1.804729 -1.800810 -1.753093 -1.659889 -1.566684 -1.473479 -1.380275 -1.287070 -1.193568 -1.099933 -1.006297 -1.000000 -1.000000 -1.000000 -1.000000 -1.000000 -1.000000 -1.000000 -1.000000 -1.000000 -1.000000 -1.000000 -1.000000 -1.000000 -1.000000 -1.000000 -1.000000 -1.000000 -1.000000 -0.982217 -0.931823 -0.881429 -0.831035 -0.780641 -0.688811 -0.595091 -0.501371 -0.403933 -0.299289 -0.281258 -0.287148 -0.292616 -0.297519 -0.302422 -0.458695 -0.670410 -0.941269 -1.212129 -1.482989 -1.500000 -1.500000 -1.500000 -1.500000 -1.500000 -1.500000 -1.500000 -1.500000 -1.500000 -1.500000 -1.500000 -1.500000 -1.500000 -1.500000 -1.500000 -1.500000 -1.500000 -1.500000 -1.500000 -1.548140 -1.633817 -1.719692 -1.805599 -1.891505 -1.977412 -2.000000 -2.000000 -2.000000 -2.000000 -2.000000 -2.000000 -1.868906 -1.652730 -1.436554 -1.227212 -1.020999 -0.814785 -0.692215 -0.718062 -0.746670 -0.775551 -0.804432 -0.833314 -0.860591 -0.877437 -0.894283 -0.911128 -0.928058 -0.946774 -0.965490 -0.976758 -0.987950 -0.999141 -1.010333 -1.021243 -1.031792 -1.042228 -1.052449 -1.062671 -1.072892 -1.085591 -1.100561 -1.115627 -1.130708 -1.145790 -1.165714 -1.186349 -1.206984 -1.229119 -1.252953 -1.280866 -1.308778 -1.336691 -1.364604 -1.397474 -1.430570 -1.463666 -1.496762 -1.531146 -1.568682 -1.608663 -1.649081 -1.689538 -1.732226 -1.774914 -1.817603 -1.865060 -1.912367 -1.959608 -2.004359 -2.046107 -2.087658 -2.132838 -2.178018 -2.221811 -2.262115 -2.302420 -2.342946 -2.383519 -2.419378 -2.440649 -2.461921 -2.472311 -2.479667 -2.487023 -2.494379 -2.502883 -2.469897 -2.430174 -2.390451 -2.350728 -2.299148 -2.239769 -2.167048 -2.082828 -1.996391 -1.900898 -1.805405 -1.709912 -1.612534 -1.508353 -1.404107 -1.300296 -1.196484 -1.093106 -0.992795 -0.905223 -0.818461 -0.731698 -0.648887 -0.582244 -0.551564 -0.500892
-4.293232 -4.293232 -4.768447 -4.738005 -4.706161 -4.674881 -4.644311 -4.608752 -4.571416 -4.534080 -4.496744 -4.459408 -4.422072 -4.384736 -4.336523 -4.284353 -4.234015 -4.183678 -4.133340 -4.083072 -4.032862 -3.982652 -3.932442 -3.882232 -3.832022 -3.781812 -3.731602 -3.681392 -3.631182 -3.580972 -3.530762 -3.480360 -3.427284 -3.374208 -3.321132 -3.268056 -3.214980 -3.161904 -3.108828 -3.055752 -3.002676 -2.949693 -2.897026 -2.844359 -2.791692 -2.739025 -2.685057 -2.629653 -2.571976 -2.512915 -2.453854 -2.394793 -2.336544 -2.278402 -2.220261 -2.162119 -2.103978 -2.042374 -1.980404 -1.904152 -1.816912 -1.729672 -1.642431 -1.555191 -1.467950 -1.478847 -1.502319 -1.525791 -1.549263 -1.572735 -1.583482 -1.589212 -1.547139 -1.453913 -1.360687 -1.267462 -1.174236 -1.081010 -1.000000 -1.000000 -1.000000 -1.000000 -1.000000 -1.000000 -1.000000 -1.000000 -1.000000 -1.000000 -1.000000 -1.000000 -1.000000 -1.000000 -1.000000 -1.000000 -1.000000 -1.000000 -1.000000 -1.000000 -1.000000 -1.000000 -1.000000 -0.970291 -0.877174 -0.798701 -0.720228 -0.641755 -0.563282 -0.538688 -0.524767 -0.521360 -0.526262 -0.531165 -0.696477 -0.904442 -1.112408 -1.320373 -1.494807 -1.500000 -1.500000 -1.500000 -1.500000 -1.500000 -1.500000 -1.500000 -1.500000 -1.500000 -1.500000 -1.500000 -1.500000 -1.500000 -1.500000 -1.500000 -1.500000 -1.500000 -1.500000 -1.500000 -1.535798 -1.621475 -1.707153 -1.792830 -1.878517 -1.964424 -2.000000 -2.000000 -2.000000 -2.000000 -2.000000 -2.000000 -1.915050 -1.726753 -1.520539 -1.314325 -1.108112 -0.901898 -0.747422 -0.773269 -0.799116 -0.824963 -0.851568 -0.880449 -0.909330 -0.926197 -0.943043 -0.959889 -0.976735 -0.993580 -1.008886 -1.019719 -1.029645 -1.039570 -1.049495 -1.060160 -1.073073 -1.084100 -1.094321 -1.104543 -1.117072 -1.132041 -1.147011 -1.162048 -1.177130 -1.196385 -1.217020 -1.237655 -1.258289 -1.280156 -1.308069 -1.334961 -1.360574 -1.386187 -1.414411 -1.446661 -1.479758 -1.512854 -1.545950 -1.583385 -1.620920 -1.659723 -1.700141 -1.741949 -1.784637 -1.827326 -1.870014 -1.914723 -1.956472 -1.998220 -2.039968 -2.081128 -2.121490 -2.165460 -2.210640 -2.252465 -2.292769 -2.333074 -2.373470 -2.395995 -2.417267 -2.438538 -2.459810 -2.476823 -2.484179 -2.491535 -2.494827 -2.472590 -2.437373 -2.393659 -2.349944 -2.307149 -2.264599 -2.187698 -2.103478 -2.019258 -1.935038 -1.842853 -1.747360 -1.648842 -1.545558 -1.442023 -1.337504 -1.232985 -1.128466 -1.023947 -0.934028 -0.847760 -0.760997 -0.674235 -0.587473 -0.525030 -0.494350 -0.500892
-4.293232 -4.293232 -4.293232 -4.732630 -4.700739 -4.669387 -4.638759 -4.604737 -4.567401 -4.530066 -4.492730 -4.455394 -4.418058 -4.380722 -4.340769 -4.288339 -4.238002 -4.187664 -4.137326 -4.086988 -4.036650 -3.986313 -3.935975 -3.885637 -3.835299 -3.784962 -3.734624 -3.684286 -3.633948 -3.583610 -3.533284 -3.482885 -3.429914 -3.377247 -3.324580 -3.271913 -3.219246 -3.166578 -3.113911 -3.061244 -3.008577 -2.955910 -2.903243 -2.850575 -2.797908 -2.745241 -2.691059 -2.635655 -2.580251 -2.524846 -2.469442 -2.413274 -2.354213 -2.295152 -2.236091 -2.177030 -2.117969 -2.058908 -1.999847 -1.922501 -1.836089 -1.747739 -1.659388 -1.571426 -1.484186 -1.396945 -1.309705 -1.222464 -1.195900 -1.219371 -1.226301 -1.232031 -1.237761 -1.243491 -1.249221 -1.248139 -1.154913 -1.061687 -1.000000 -1.000000 -1.000000 -1.000000 -1.000000 -1.000000 -1.000000 -1.000000 -1.000000 -1.000000 -1.000000 -1.000000 -1.000000 -1.000000 -1.000000 -1.000000 -1.000000 -1.000000 -1.000000 -1.000000 -1.000000 -1.000000 -1.000000 -1.000000 -1.000000 -1.000000 -1.000000 -0.936943 -0.858470 -0.837566 -0.823645 -0.809724 -0.793332 -0.775224 -0.844318 -1.006333 -1.172808 -1.339284 -1.500000 -1.500000 -1.500000 -1.500000 -1.500000 -1.500000 -1.500000 -1.500000 -1.500000 -1.500000 -1.500000 -1.500000 -1.500000 -1.500000 -1.500000 -1.500000 -1.500000 -1.500000 -1.500000 -1.500000 -1.523456 -1.609133 -1.694811 -1.780469 -1.866039 -1.951608 -2.000000 -2.000000 -2.000000 -2.000000 -2.000000 -2.000000 -1.941984 -1.758052 -1.574119 -1.390187 -1.195225 -0.989012 -0.802630 -0.828477 -0.854324 -0.880171 -0.906018 -0.931864 -0.956198 -0.971756 -0.986472 -1.001189 -1.015905 -1.030700 -1.046028 -1.057897 -1.067823 -1.077748 -1.088528 -1.101441 -1.114354 -1.125972 -1.136194 -1.148552 -1.163521 -1.178491 -1.193461 -1.208470 -1.227056 -1.247691 -1.268180 -1.286522 -1.304864 -1.328996 -1.354609 -1.380222 -1.405835 -1.432705 -1.464190 -1.495849 -1.528945 -1.562041 -1.598087 -1.635623 -1.673159 -1.710783 -1.751672 -1.794360 -1.836412 -1.873888 -1.911364 -1.950333 -1.992081 -2.033829 -2.075578 -2.116051 -2.156413 -2.198081 -2.242815 -2.283119 -2.323423 -2.352157 -2.379693 -2.399273 -2.417543 -2.436428 -2.457699 -2.478971 -2.488692 -2.481345 -2.459108 -2.436871 -2.411731 -2.368016 -2.324301 -2.280587 -2.212234 -2.130324 -2.043247 -1.956170 -1.871468 -1.784808 -1.685151 -1.581866 -1.478582 -1.375298 -1.271173 -1.166655 -1.062984 -0.967572 -0.872563 -0.786484 -0.700406 -0.614327 -0.528248 -0.467816 -0.437135 -0.500892
-4.293232 -4.293232 -4.293232 -4.727213 -4.695332 -4.663965 -4.633208 -4.600723 -4.563387 -4.526051 -4.488715 -4.451379 -4.414044 -4.376708 -4.339372 -4.292487 -4.241988 -4.191650 -4.141312 -4.090974 -4.040637 -3.990299 -3.939961 -3.889623 -3.839286 -3.788948 -3.738259 -3.687364 -3.636470 -3.585575 -3.534680 -3.483762 -3.431538 -3.379314 -3.327090 -3.274866 -3.222642 -3.170418 -3.118194 -3.065971 -3.013747 -2.961523 -2.909299 -2.856792 -2.804125 -2.751457 -2.697061 -2.641657 -2.586252 -2.530848 -2.475444 -2.420039 -2.364635 -2.309231 -2.253826 -2.195511 -2.136450 -2.077389 -2.018328 -1.937070 -1.853599 -1.770129 -1.686659 -1.602704 -1.514354 -1.426003 -1.337652 -1.249302 -1.160951 -1.065495 -0.929270 -0.808198 -0.818857 -0.829516 -0.840176 -0.850835 -0.861495 -0.872154 -0.871411 -0.863561 -0.857191 -0.850821 -0.844451 -0.838080 -0.831710 -0.862934 -0.888959 -0.873384 -0.857808 -0.842232 -0.826656 -0.877480 -0.946316 -1.000000 -1.000000 -1.000000 -1.000000 -1.000000 -1.000000 -1.000000 -1.000000 -1.000000 -1.000000 -1.000000 -1.000000 -1.000000 -1.000000 -1.057263 -1.100571 -1.082463 -1.064355 -1.046247 -1.124029 -1.209117 -1.294206 -1.379295 -1.500000 -1.500000 -1.500000 -1.500000 -1.500000 -1.500000 -1.500000 -1.500000 -1.500000 -1.500000 -1.500000 -1.500000 -1.500000 -1.500000 -1.500000 -1.500000 -1.500000 -1.500000 -1.500000 -1.500000 -1.511066 -1.596368 -1.681924 -1.767493 -1.853063 -1.938633 -2.000000 -2.000000 -2.000000 -2.000000 -2.000000 -2.000000 -1.968918 -1.784985 -1.601053 -1.417121 -1.233188 -1.049256 -0.866334 -0.879794 -0.902659 -0.925523 -0.948388 -0.970937 -0.991614 -1.008224 -1.022940 -1.037657 -1.052514 -1.067842 -1.083171 -1.096075 -1.106000 -1.116896 -1.129810 -1.142723 -1.155636 -1.167845 -1.180032 -1.195002 -1.209971 -1.224549 -1.237306 -1.253219 -1.271561 -1.289902 -1.308244 -1.326586 -1.349485 -1.374332 -1.399870 -1.425483 -1.451096 -1.482484 -1.513968 -1.545453 -1.578132 -1.612790 -1.650326 -1.687862 -1.725398 -1.761161 -1.797496 -1.834972 -1.872448 -1.909924 -1.948170 -1.987099 -2.027691 -2.069439 -2.110613 -2.150974 -2.191335 -2.231697 -2.273469 -2.301749 -2.329285 -2.356821 -2.384356 -2.408404 -2.426674 -2.444944 -2.463214 -2.481484 -2.470445 -2.445627 -2.423390 -2.401153 -2.378916 -2.342373 -2.296870 -2.225253 -2.153636 -2.079223 -1.992146 -1.905069 -1.817992 -1.722527 -1.619691 -1.515421 -1.411606 -1.308322 -1.204843 -1.102042 -1.006631 -0.911219 -0.815808 -0.725019 -0.638941 -0.552862 -0.485178 -0.421511 -0.379921 -0.205667
-4.293232 -4.293232 -4.293232 -4.721795 -4.689982 -4.658543 -4.627656 -4.596708 -4.559373 -4.522037 -4.484701 -4.447365 -4.410029 -4.372693 -4.335357 -4.296733 -4.245974 -4.195636 -4.145298 -4.094961 -4.044210 -3.993315 -3.942420 -3.891526 -3.840631 -3.789736 -3.738842 -3.687947 -3.637052 -3.586158 -3.535263 -3.484369 -3.432191 -3.379967 -3.327743 -3.275520 -3.223296 -3.171072 -3.118848 -3.066624 -3.014400 -2.962287 -2.910328 -2.858369 -2.806410 -2.754450 -2.701861 -2.648978 -2.596094 -2.540428 -2.484554 -2.428680 -2.372806 -2.316932 -2.261058 -2.205184 -2.149310 -2.093615 -2.035108 -1.951638 -1.868168 -1.784698 -1.701227 -1.617757 -1.534287 -1.450816 -1.367346 -1.280968 -1.192618 -1.086784 -0.950559 -0.814334 -0.678109 -0.541884 -0.405659 -0.353079 -0.363738 -0.374398 -0.369369 -0.359105 -0.348842 -0.338578 -0.328568 -0.322198 -0.315828 -0.356714 -0.409835 -0.462957 -0.516078 -0.569199 -0.565783 -0.626711 -0.695547 -0.766271 -0.842521 -0.918772 -0.980419 -1.000000 -1.000000 -1.000000 -1.000000 -1.000000 -1.000000 -1.000000 -1.000000 -1.000000 -1.002092 -1.061827 -1.121563 -1.181298 -1.241034 -1.298026 -1.341870 -1.383208 -1.424547 -1.465885 -1.500000 -1.500000 -1.500000 -1.500000 -1.500000 -1.500000 -1.500000 -1.500000 -1.500000 -1.500000 -1.500000 -1.500000 -1.500000 -1.500000 -1.500000 -1.500000 -1.500000 -1.500000 -1.500000 -1.500000 -1.500000 -1.584080 -1.669383 -1.754686 -1.840088 -1.925658 -2.000000 -2.000000 -2.000000 -2.000000 -2.000000 -2.000000 -1.995991 -1.812597 -1.629204 -1.445810 -1.262416 -1.085357 -0.933483 -0.917710 -0.940574 -0.963439 -0.985677 -1.006354 -1.027031 -1.044692 -1.059408 -1.074327 -1.089656 -1.104984 -1.120313 -1.134253 -1.145265 -1.158178 -1.171091 -1.184004 -1.195221 -1.207834 -1.220591 -1.233347 -1.246103 -1.258859 -1.274192 -1.293149 -1.311625 -1.329967 -1.348308 -1.370152 -1.394998 -1.419845 -1.445131 -1.470744 -1.500778 -1.532262 -1.563747 -1.595232 -1.627493 -1.664653 -1.697358 -1.730063 -1.762768 -1.797156 -1.833532 -1.871008 -1.908484 -1.946136 -1.985065 -2.023993 -2.063300 -2.105049 -2.145536 -2.185897 -2.223526 -2.254740 -2.282249 -2.307731 -2.333948 -2.361484 -2.389020 -2.416556 -2.435806 -2.454076 -2.460494 -2.454439 -2.448383 -2.424866 -2.398807 -2.372748 -2.346689 -2.309889 -2.238272 -2.166655 -2.095038 -2.023422 -1.941045 -1.853968 -1.756600 -1.657298 -1.557024 -1.452754 -1.348484 -1.244215 -1.141382 -1.044904 -0.950215 -0.854867 -0.759455 -0.664044 -0.577476 -0.510463 -0.446796 -0.383128 -0.322707 -0.205667
-4.285320 -4.285320 -4.285320 -4.716377 -4.684632 -4.653122 -4.622104 -4.591534 -4.555358 -4.518022 -4.480686 -4.443351 -4.406015 -4.368679 -4.331343 -4.294007 -4.249007 -4.198000 -4.146993 -4.095986 -4.044980 -3.993973 -3.943003 -3.892109 -3.841214 -3.790319 -3.739425 -3.688530 -3.637635 -3.586741 -3.535846 -3.484951 -3.432845 -3.380621 -3.328397 -3.276352 -3.224393 -3.172434 -3.120475 -3.068516 -3.016556 -2.964597 -2.912638 -2.860679 -2.808720 -2.756761 -2.704134 -2.651250 -2.598367 -2.545483 -2.492600 -2.439716 -2.385754 -2.329880 -2.274006 -2.218132 -2.162258 -2.106384 -2.045796 -1.967946 -1.890095 -1.812245 -1.729247 -1.644867 -1.560487 -1.476107 -1.391728 -1.307348 -1.222968 -1.067226 -0.864717 -0.733655 -0.602594 -0.471532 -0.340470 -0.209409 -0.078347 0.052714 0.056496 0.060867 0.065238 0.069608 0.073979 0.078349 0.082720 0.083816 0.054401 -0.003787 -0.061974 -0.120162 -0.180259 -0.324466 -0.468672 -0.595562 -0.671813 -0.748064 -0.807624 -0.855999 -0.904374 -0.952749 -1.000000 -1.000000 -1.000000 -1.000000 -1.000000 -1.000000 -1.004563 -1.044596 -1.098000 -1.152055 -1.206110 -1.260362 -1.316277 -1.372191 -1.427688 -1.469027 -1.500000 -1.500000 -1.500000 -1.500000 -1.500000 -1.500000 -1.500000 -1.500000 -1.500000 -1.500000 -1.500000 -1.500000 -1.500000 -1.500000 -1.500000 -1.500000 -1.500000 -1.500000 -1.500000 -1.500000 -1.500000 -1.571793 -1.657095 -1.742398 -1.827701 -1.913003 -1.998222 -2.000000 -2.000000 -2.000000 -2.000000 -2.000000 -2.000000 -1.842733 -1.659339 -1.475945 -1.304380 -1.152506 -1.000631 -0.955625 -0.978490 -1.000417 -1.021094 -1.041771 -1.062448 -1.081160 -1.096141 -1.111470 -1.126798 -1.142127 -1.155706 -1.169901 -1.180680 -1.191458 -1.202237 -1.213016 -1.225470 -1.241351 -1.254900 -1.267657 -1.280413 -1.295115 -1.314071 -1.333028 -1.351689 -1.370031 -1.390818 -1.415665 -1.440512 -1.465359 -1.490392 -1.519072 -1.550557 -1.581182 -1.608334 -1.635486 -1.666264 -1.698964 -1.731669 -1.764374 -1.797664 -1.833771 -1.869878 -1.907044 -1.944520 -1.983030 -2.021959 -2.060888 -2.099816 -2.140097 -2.172954 -2.204168 -2.235381 -2.265286 -2.293529 -2.319458 -2.344940 -2.370422 -2.395904 -2.421386 -2.443483 -2.437427 -2.431372 -2.425317 -2.419261 -2.405346 -2.379287 -2.353228 -2.312813 -2.259135 -2.190399 -2.115516 -2.040633 -1.965750 -1.889944 -1.790673 -1.691371 -1.592069 -1.492767 -1.390087 -1.285817 -1.183638 -1.084150 -0.985076 -0.890387 -0.795698 -0.701008 -0.606319 -0.533940 -0.471737 -0.408413 -0.344745 -0.281077 -0.205667
-4.285320 -4.285320 -4.285320 -4.710959 -4.679282 -4.647700 -4.616553 -4.585982 -4.551344 -4.514008 -4.476672 -4.439336 -4.402000 -4.364664 -4.327329 -4.289993 -4.251655 -4.200648 -4.149641 -4.098635 -4.047628 -3.996621 -3.945614 -3.894607 -3.843601 -3.792594 -3.741587 -3.690580 -3.639574 -3.588435 -3.536352 -3.484270 -3.432485 -3.380748 -3.329011 -3.277274 -3.225537 -3.173800 -3.122063 -3.070326 -3.018589 -2.966852 -2.914949 -2.862990 -2.811031 -2.759072 -2.706406 -2.653523 -2.600639 -2.547756 -2.494872 -2.441989 -2.389105 -2.336222 -2.283338 -2.230455 -2.175206 -2.119332 -2.055595 -1.977745 -1.899894 -1.822043 -1.744193 -1.666342 -1.588492 -1.509492 -1.425113 -1.340733 -1.256353 -1.073995 -0.867020 -0.660044 -0.453069 -0.246093 -0.074947 0.056114 0.187176 0.294654 0.292673 0.290691 0.288709 0.286727 0.287764 0.292135 0.296060 0.297019 0.297979 0.298938 0.299898 0.300857 0.232853 0.088646 -0.055560 -0.201650 -0.348748 -0.495846 -0.632130 -0.700026 -0.752235 -0.804443 -0.856652 -0.905985 -0.950291 -0.994598 -1.000000 -1.000000 -1.007887 -1.047920 -1.087953 -1.127986 -1.168275 -1.222699 -1.278613 -1.333743 -1.385294 -1.436845 -1.482240 -1.500000 -1.500000 -1.500000 -1.500000 -1.500000 -1.500000 -1.500000 -1.500000 -1.500000 -1.500000 -1.500000 -1.500000 -1.500000 -1.500000 -1.500000 -1.500000 -1.500000 -1.500000 -1.500000 -1.500000 -1.559505 -1.644807 -1.730110 -1.815413 -1.900417 -1.984690 -2.000000 -2.000000 -2.000000 -2.000000 -2.000000 -2.000000 -1.872869 -1.689475 -1.523403 -1.371529 -1.219654 -1.067779 -0.993541 -1.015157 -1.035834 -1.056511 -1.076972 -1.095447 -1.113586 -1.126799 -1.140011 -1.153224 -1.166436 -1.180932 -1.197295 -1.209254 -1.220033 -1.230812 -1.243028 -1.258909 -1.274789 -1.289210 -1.301966 -1.316037 -1.334994 -1.353950 -1.372906 -1.391753 -1.411485 -1.436331 -1.461178 -1.486025 -1.508122 -1.530875 -1.557978 -1.585130 -1.612282 -1.639433 -1.669019 -1.700896 -1.733275 -1.765980 -1.798685 -1.834279 -1.870386 -1.906493 -1.943080 -1.980995 -2.019924 -2.058853 -2.091886 -2.122777 -2.153595 -2.184809 -2.216023 -2.247237 -2.275694 -2.303937 -2.331185 -2.356667 -2.382149 -2.407631 -2.415977 -2.422769 -2.414576 -2.405220 -2.396195 -2.390139 -2.384084 -2.359767 -2.311843 -2.258164 -2.204486 -2.146062 -2.071179 -1.996297 -1.919047 -1.827385 -1.729268 -1.628445 -1.527623 -1.427538 -1.327420 -1.225893 -1.126406 -1.026918 -0.927431 -0.830559 -0.735870 -0.641180 -0.564987 -0.489240 -0.424702 -0.362498 -0.300295 -0.238092 -0.205667
-4.285320 -4.285320 -4.285320 -4.705541 -4.673933 -4.642278 -4.611001 -4.580431 -4.547329 -4.509993 -4.472658 -4.435322 -4.397986 -4.360650 -4.323314 -4.286051 -4.254303 -4.203296 -4.152289 -4.101283 -4.050276 -3.999269 -3.948262 -3.897255 -3.846249 -3.794471 -3.742388 -3.690306 -3.638224 -3.586141 -3.534059 -3.481976 -3.430176 -3.378439 -3.326702 -3.274965 -3.223228 -3.171491 -3.119754 -3.068017 -3.016280 -2.964543 -2.912774 -2.860981 -2.809189 -2.757396 -2.706400 -2.655588 -2.604776 -2.552221 -2.499214 -2.446207 -2.393199 -2.340192 -2.287184 -2.234177 -2.181170 -2.128162 -2.066375 -1.994426 -1.916100 -1.837774 -1.759448 -1.681121 -1.602795 -1.524469 -1.446143 -1.367816 -1.285646 -1.032293 -0.824564 -0.616836 -0.409107 -0.201379 0.006350 0.214078 0.421807 0.536931 0.533424 0.532250 0.531077 0.529904 0.528730 0.527557 0.515106 0.477118 0.473089 0.469185 0.465280 0.461376 0.440382 0.369956 0.299530 0.179434 0.032336 -0.114762 -0.249821 -0.380875 -0.511929 -0.642984 -0.722588 -0.771369 -0.815675 -0.859982 -0.904288 -0.944440 -0.999870 -1.039928 -1.075394 -1.110861 -1.146327 -1.182060 -1.218495 -1.263138 -1.314689 -1.366240 -1.410613 -1.442796 -1.474979 -1.500000 -1.500000 -1.500000 -1.500000 -1.500000 -1.500000 -1.500000 -1.500000 -1.500000 -1.500000 -1.500000 -1.500000 -1.500000 -1.500000 -1.500000 -1.500000 -1.500000 -1.500000 -1.547217 -1.632520 -1.717822 -1.802612 -1.886885 -1.971158 -2.000000 -2.000000 -2.000000 -2.000000 -2.000000 -2.000000 -1.903005 -1.742426 -1.590552 -1.438677 -1.283924 -1.126360 -1.024508 -1.042983 -1.061458 -1.079933 -1.098409 -1.117461 -1.136911 -1.150742 -1.163954 -1.177167 -1.191701 -1.208064 -1.224427 -1.237828 -1.248607 -1.260586 -1.276467 -1.292347 -1.308228 -1.323520 -1.336960 -1.355916 -1.374872 -1.393829 -1.412785 -1.429535 -1.450660 -1.471738 -1.492816 -1.513895 -1.535527 -1.562159 -1.589077 -1.616229 -1.643381 -1.671774 -1.703650 -1.735527 -1.767586 -1.800291 -1.834787 -1.870894 -1.907001 -1.943107 -1.979214 -2.011419 -2.042310 -2.073201 -2.104092 -2.134876 -2.165573 -2.196664 -2.227878 -2.257858 -2.286102 -2.314346 -2.342589 -2.368394 -2.378310 -2.385103 -2.391895 -2.398688 -2.398319 -2.388963 -2.379607 -2.370251 -2.357592 -2.313904 -2.257194 -2.203515 -2.149837 -2.096158 -2.026843 -1.947215 -1.855553 -1.763890 -1.670442 -1.569619 -1.468797 -1.367974 -1.267516 -1.167972 -1.068869 -0.969686 -0.870199 -0.770731 -0.677120 -0.601372 -0.525624 -0.449876 -0.377667 -0.315463 -0.253260 -0.203014 -0.205667
-4.285320 -4.285320 -4.285320 -4.700123 -4.668583 -4.636856 -4.605504 -4.574879 -4.543315 -4.505979 -4.468643 -4.431307 -4.393971 -4.356636 -4.319300 -4.284179 -4.256951 -4.205944 -4.154937 -4.103931 -4.052589 -4.000507 -3.948424 -3.896342 -3.844260 -3.792177 -3.740095 -3.688012 -3.635930 -3.583847 -3.531765 -3.479683 -3.427867 -3.376130 -3.324393 -3.272656 -3.220919 -3.169167 -3.117374 -3.065582 -3.013789 -2.961996 -2.910204 -2.858411 -2.806618 -2.754826 -2.703877 -2.653065 -2.602253 -2.551441 -2.500629 -2.449817 -2.398760 -2.345753 -2.292746 -2.239738 -2.186731 -2.133723 -2.069355 -1.998880 -1.928405 -1.857931 -1.787456 -1.712888 -1.634562 -1.556236 -1.477909 -1.399583 -1.266269 -0.952711 -0.639153 -0.325595 -0.012254 0.195474 0.403203 0.610931 0.818660 0.880837 0.855587 0.830337 0.805088 0.790661 0.789487 0.788314 0.769083 0.731095 0.693107 0.655119 0.617131 0.601182 0.572096 0.501670 0.431244 0.360818 0.289075 0.214027 0.155045 0.034112 -0.086821 -0.207754 -0.328686 -0.467135 -0.622594 -0.672194 -0.710364 -0.748535 -0.808594 -0.908656 -1.008718 -1.075022 -1.110488 -1.146289 -1.182724 -1.219159 -1.255593 -1.295636 -1.338987 -1.371170 -1.403352 -1.437907 -1.477867 -1.500000 -1.500000 -1.500000 -1.500000 -1.500000 -1.500000 -1.500000 -1.500000 -1.500000 -1.500000 -1.500000 -1.500000 -1.500000 -1.500000 -1.500000 -1.500000 -1.534929 -1.620232 -1.704806 -1.789079 -1.873353 -1.957626 -2.000000 -2.000000 -2.000000 -2.000000 -2.000000 -2.000000 -1.944206 -1.786642 -1.629079 -1.471515 -1.313951 -1.174480 -1.045945 -1.064420 -1.082895 -1.101370 -1.120490 -1.139939 -1.159388 -1.174685 -1.187897 -1.202470 -1.218833 -1.235196 -1.251559 -1.266403 -1.278144 -1.294024 -1.309905 -1.325786 -1.341666 -1.356344 -1.372350 -1.388113 -1.403876 -1.419639 -1.435402 -1.456263 -1.477511 -1.498589 -1.519667 -1.540745 -1.566811 -1.593443 -1.620176 -1.647328 -1.674529 -1.706405 -1.738282 -1.770159 -1.802035 -1.835295 -1.871402 -1.904464 -1.933658 -1.962852 -1.992858 -2.023624 -2.054515 -2.085406 -2.116271 -2.146968 -2.177665 -2.208519 -2.239733 -2.268266 -2.296510 -2.324375 -2.341469 -2.350767 -2.355060 -2.361021 -2.367814 -2.374607 -2.381399 -2.372706 -2.363350 -2.339198 -2.305539 -2.271881 -2.216257 -2.159272 -2.102288 -2.045303 -1.975670 -1.883721 -1.792058 -1.700395 -1.608732 -1.510793 -1.409971 -1.309584 -1.209274 -1.109083 -1.009980 -0.910877 -0.811774 -0.714915 -0.635344 -0.561413 -0.486261 -0.410513 -0.334765 -0.268428 -0.218383 -0.176502 -0.205667
-4.272154 -4.272154 -4.272154 -4.694705 -4.663233 -4.631434 -4.600083 -4.569327 -4.538757 -4.501965 -4.464629 -4.427293 -4.389957 -4.352621 -4.315285 -4.282307 -4.258883 -4.206764 -4.154645 -4.102526 -4.050407 -3.998287 -3.946168 -3.894049 -3.841966 -3.789884 -3.737801 -3.685719 -3.633636 -3.581554 -3.529471 -3.477389 -3.425557 -3.373767 -3.321974 -3.270182 -3.218389 -3.166596 -3.114804 -3.063011 -3.011219 -2.959426 -2.907633 -2.855841 -2.804048 -2.752255 -2.701355 -2.650543 -2.599731 -2.548919 -2.498106 -2.447294 -2.396482 -2.345670 -2.294858 -2.244046 -2.192292 -2.139285 -2.072334 -2.001860 -1.931385 -1.860910 -1.790436 -1.719961 -1.649486 -1.579012 -1.508537 -1.431350 -1.246891 -0.933333 -0.619775 -0.306217 0.007341 0.320898 0.634456 0.948014 1.215513 1.224742 1.199492 1.174242 1.142410 1.106429 1.070449 1.034468 0.975649 0.922977 0.870305 0.817632 0.764960 0.712287 0.653833 0.589864 0.518518 0.443469 0.368421 0.293372 0.318001 0.351627 0.385252 0.284823 0.163891 0.022820 -0.132639 -0.288099 -0.443559 -0.552630 -0.617319 -0.717381 -0.817443 -0.917505 -1.017409 -1.116463 -1.156770 -1.197078 -1.237385 -1.277693 -1.317516 -1.356884 -1.396843 -1.436803 -1.476763 -1.500000 -1.500000 -1.500000 -1.500000 -1.500000 -1.500000 -1.500000 -1.500000 -1.500000 -1.500000 -1.500000 -1.500000 -1.500000 -1.500000 -1.500000 -1.500000 -1.522642 -1.607001 -1.691332 -1.775789 -1.860247 -1.944635 -2.000000 -2.000000 -2.000000 -2.000000 -2.000000 -2.000000 -1.974234 -1.816670 -1.659107 -1.501543 -1.364796 -1.228951 -1.093107 -1.085857 -1.104332 -1.123518 -1.142967 -1.162417 -1.181866 -1.198628 -1.213239 -1.229602 -1.245965 -1.262328 -1.278690 -1.293790 -1.306949 -1.320107 -1.333266 -1.346425 -1.359584 -1.377450 -1.394278 -1.410041 -1.425804 -1.441567 -1.461545 -1.482991 -1.504362 -1.525440 -1.546518 -1.571464 -1.598095 -1.624727 -1.651359 -1.678427 -1.709160 -1.741037 -1.772913 -1.802830 -1.828876 -1.857417 -1.886610 -1.915804 -1.944998 -1.974527 -2.005170 -2.035830 -2.066721 -2.097611 -2.128363 -2.159060 -2.189757 -2.220455 -2.250431 -2.273570 -2.290664 -2.307757 -2.322803 -2.335046 -2.339913 -2.344206 -2.348498 -2.352790 -2.357318 -2.354463 -2.320805 -2.287146 -2.253487 -2.219829 -2.175594 -2.118610 -2.061625 -1.992094 -1.915883 -1.826733 -1.733159 -1.639584 -1.546010 -1.451967 -1.351653 -1.251343 -1.151033 -1.050723 -0.951090 -0.851987 -0.756821 -0.672551 -0.588280 -0.513243 -0.439312 -0.365381 -0.291451 -0.233752 -0.191870 -0.149989 -0.254418
-4.272154 -4.272154 -4.272154 -4.689287 -4.657884 -4.626012 -4.594661 -4.563776 -4.533206 -4.497950 -4.460614 -4.423278 -4.385943 -4.348607 -4.311271 -4.280490 -4.258475 -4.206356 -4.154237 -4.102117 -4.049998 -3.997879 -3.945760 -3.893641 -3.841521 -3.789402 -3.737283 -3.685164 -3.633045 -3.579544 -3.525728 -3.471911 -3.419398 -3.367343 -3.315289 -3.263429 -3.211711 -3.159993 -3.108275 -3.056557 -3.004839 -2.953121 -2.901403 -2.849685 -2.797967 -2.746249 -2.696953 -2.647685 -2.597622 -2.546806 -2.495990 -2.445174 -2.394358 -2.343542 -2.292726 -2.241910 -2.191094 -2.140278 -2.078512 -2.016231 -1.947756 -1.877422 -1.807088 -1.736754 -1.666420 -1.596086 -1.525752 -1.455418 -1.159332 -0.751519 -0.371767 -0.050352 0.271062 0.592477 0.913891 1.235306 1.526593 1.446434 1.366274 1.293768 1.257787 1.221806 1.185826 1.149845 1.082250 1.010005 0.937760 0.867884 0.815211 0.762539 0.702505 0.638536 0.574566 0.510597 0.446628 0.373377 0.407003 0.440628 0.474254 0.509492 0.547183 0.452426 0.270558 0.088691 -0.093177 -0.275045 -0.419602 -0.524181 -0.623997 -0.723814 -0.823630 -0.942172 -1.083539 -1.197384 -1.237692 -1.277999 -1.317814 -1.357038 -1.396262 -1.435699 -1.475659 -1.500000 -1.500000 -1.500000 -1.500000 -1.500000 -1.500000 -1.500000 -1.500000 -1.500000 -1.500000 -1.497297 -1.500000 -1.500000 -1.500000 -1.500000 -1.500000 -1.510251 -1.594709 -1.679166 -1.763623 -1.847742 -1.930861 -2.000000 -2.000000 -2.000000 -2.000000 -2.000000 -2.000000 -2.000000 -1.846698 -1.690956 -1.555111 -1.419267 -1.283423 -1.147578 -1.107294 -1.126547 -1.145996 -1.165445 -1.184895 -1.202568 -1.219994 -1.233979 -1.247963 -1.261948 -1.275932 -1.290382 -1.308738 -1.323391 -1.336549 -1.349708 -1.362867 -1.380200 -1.398556 -1.416206 -1.431969 -1.447732 -1.466828 -1.488274 -1.509719 -1.531165 -1.552291 -1.576116 -1.602748 -1.629380 -1.656011 -1.682643 -1.708534 -1.734581 -1.760628 -1.786674 -1.812721 -1.840292 -1.868757 -1.897951 -1.927145 -1.956338 -1.986839 -2.017483 -2.048126 -2.078926 -2.109757 -2.140455 -2.171152 -2.200215 -2.221464 -2.239858 -2.256952 -2.274046 -2.291139 -2.303859 -2.316102 -2.324767 -2.329059 -2.333352 -2.337644 -2.325843 -2.310768 -2.274289 -2.237559 -2.201435 -2.167777 -2.134118 -2.077947 -2.004190 -1.927979 -1.851769 -1.771371 -1.677796 -1.584222 -1.490213 -1.392874 -1.293573 -1.193200 -1.092827 -0.992481 -0.892201 -0.798726 -0.714456 -0.630186 -0.545916 -0.465072 -0.391142 -0.317211 -0.260065 -0.210710 -0.165358 -0.123477 -0.047884
-4.272154 -4.272154 -4.272154 -4.683869 -4.652534 -4.620591 -4.589239 -4.558224 -4.527654 -4.493936 -4.456600 -4.419264 -4.381928 -4.344592 -4.307256 -4.278900 -4.258067 -4.205947 -4.153828 -4.101709 -4.049590 -3.997471 -3.945351 -3.893232 -3.841113 -3.788138 -3.734322 -3.680505 -3.626689 -3.572873 -3.519057 -3.465240 -3.412771 -3.360716 -3.308661 -3.256607 -3.204552 -3.152497 -3.100443 -3.048670 -2.996952 -2.945234 -2.893516 -2.841798 -2.790080 -2.738569 -2.689301 -2.640033 -2.590765 -2.541497 -2.492228 -2.442960 -2.392495 -2.341679 -2.290863 -2.240047 -2.189231 -2.137052 -2.074771 -2.012491 -1.950210 -1.887930 -1.825649 -1.762351 -1.692017 -1.621683 -1.551349 -1.481015 -1.111378 -0.703565 -0.295752 0.112061 0.519875 0.927688 1.260180 1.581594 1.783634 1.703475 1.623316 1.543157 1.462998 1.382839 1.302680 1.262798 1.190553 1.118308 1.046063 0.976255 0.908546 0.840837 0.772821 0.715632 0.658443 0.601254 0.544065 0.496931 0.533351 0.570518 0.608209 0.645900 0.683590 0.588754 0.446075 0.290315 0.108447 -0.073421 -0.213618 -0.319721 -0.425824 -0.530035 -0.629851 -0.749993 -0.891360 -1.032727 -1.174094 -1.278305 -1.318113 -1.357336 -1.396560 -1.435784 -1.475008 -1.498671 -1.493304 -1.487938 -1.482571 -1.477205 -1.471777 -1.465857 -1.459936 -1.454015 -1.451681 -1.487991 -1.500000 -1.500000 -1.500000 -1.500000 -1.500000 -1.500000 -1.582543 -1.667000 -1.750849 -1.833967 -1.917086 -2.000000 -2.000000 -2.000000 -2.000000 -2.000000 -2.000000 -2.000000 -1.881272 -1.745427 -1.609583 -1.468205 -1.313613 -1.159020 -1.122440 -1.139608 -1.156775 -1.173942 -1.191109 -1.209839 -1.230130 -1.244666 -1.258650 -1.272635 -1.286924 -1.305280 -1.323636 -1.339833 -1.352991 -1.366150 -1.382950 -1.401306 -1.419663 -1.438019 -1.453897 -1.472110 -1.493556 -1.515002 -1.536448 -1.557893 -1.580768 -1.605363 -1.627166 -1.648968 -1.670771 -1.693433 -1.718425 -1.744472 -1.770519 -1.796565 -1.823503 -1.851937 -1.880370 -1.909291 -1.938485 -1.968509 -1.999152 -2.029795 -2.060438 -2.091131 -2.120352 -2.141602 -2.162851 -2.184101 -2.204165 -2.223103 -2.240334 -2.257428 -2.272672 -2.284915 -2.297158 -2.309402 -2.313913 -2.305625 -2.290550 -2.275475 -2.260400 -2.234453 -2.197723 -2.160993 -2.124263 -2.084530 -2.018238 -1.940076 -1.863865 -1.787654 -1.711443 -1.622434 -1.527962 -1.430623 -1.333284 -1.235593 -1.135220 -1.034847 -0.934474 -0.839547 -0.753357 -0.670726 -0.587821 -0.503551 -0.419281 -0.342971 -0.287293 -0.237938 -0.188583 -0.139227 -0.096964 -0.047884
-4.260895 -4.260895 -4.260895 -4.678451 -4.647184 -4.615210 -4.583817 -4.552672 -4.522102 -4.489921 -4.452586 -4.415250 -4.377914 -4.340578 -4.303242 -4.277310 -4.257658 -4.205539 -4.153420 -4.101301 -4.049181 -3.996732 -3.942916 -3.889099 -3.835283 -3.781467 -3.727651 -3.673834 -3.620018 -3.566202 -3.512385 -3.458569 -3.406144 -3.354089 -3.302034 -3.249980 -3.197925 -3.145870 -3.093815 -3.041761 -2.989706 -2.937651 -2.885629 -2.833911 -2.782193 -2.730916 -2.681648 -2.632380 -2.583112 -2.533844 -2.484576 -2.435308 -2.386040 -2.336772 -2.287504 -2.238183 -2.187367 -2.133312 -2.071031 -2.008751 -1.946470 -1.884190 -1.821909 -1.759629 -1.697348 -1.635068 -1.572787 -1.471238 -1.063424 -0.655611 -0.256920 0.141639 0.540197 0.938756 1.337314 1.735872 1.918985 1.854225 1.757691 1.661157 1.564623 1.468089 1.371555 1.300000 1.300000 1.281399 1.213690 1.145982 1.078273 1.010564 0.936238 0.861488 0.787504 0.730315 0.673126 0.636009 0.672429 0.708849 0.745269 0.782307 0.819998 0.711521 0.568843 0.426164 0.283486 0.128204 -0.007635 -0.113738 -0.219840 -0.325943 -0.430793 -0.553238 -0.691550 -0.829862 -0.968174 -1.106487 -1.225496 -1.282951 -1.311903 -1.340856 -1.369809 -1.398095 -1.424752 -1.432760 -1.427393 -1.422027 -1.416654 -1.410733 -1.404812 -1.411045 -1.447355 -1.483664 -1.500000 -1.500000 -1.500000 -1.500000 -1.500000 -1.500000 -1.570377 -1.653955 -1.737074 -1.820193 -1.903311 -1.986430 -2.000000 -1.994599 -1.979271 -1.963942 -1.948613 -1.934593 -1.839890 -1.685297 -1.530704 -1.376111 -1.221697 -1.169729 -1.128149 -1.145316 -1.162483 -1.179650 -1.198501 -1.218791 -1.239082 -1.255353 -1.269337 -1.283466 -1.301822 -1.320178 -1.338534 -1.356275 -1.369433 -1.385700 -1.404056 -1.422413 -1.440769 -1.459125 -1.477393 -1.498839 -1.517156 -1.534736 -1.552316 -1.570272 -1.591522 -1.613325 -1.635127 -1.656930 -1.678904 -1.703765 -1.728625 -1.754363 -1.780410 -1.806713 -1.835147 -1.863581 -1.892015 -1.920631 -1.950178 -1.980821 -2.011464 -2.037803 -2.060607 -2.082865 -2.104238 -2.125488 -2.146737 -2.167761 -2.186699 -2.205637 -2.223716 -2.240810 -2.253727 -2.265971 -2.278214 -2.283104 -2.272588 -2.255257 -2.240182 -2.225108 -2.210033 -2.194618 -2.157888 -2.121158 -2.073760 -2.018403 -1.963046 -1.885173 -1.806692 -1.728212 -1.649731 -1.565742 -1.468371 -1.371032 -1.273693 -1.176354 -1.077240 -0.976867 -0.883258 -0.793834 -0.704411 -0.621235 -0.538605 -0.455975 -0.373345 -0.310534 -0.264017 -0.215810 -0.166455 -0.117100 -0.070452 -0.047884
-4.260895 -4.260895 -4.260895 -4.673033 -4.641834 -4.609860 -4.578395 -4.547121 -4.516551 -4.485907 -4.448571 -4.411235 -4.373899 -4.336564 -4.299228 -4.275720 -4.257250 -4.205131 -4.151510 -4.097693 -4.043877 -3.990061 -3.936245 -3.882428 -3.828612 -3.774796 -3.720979 -3.667163 -3.613347 -3.559531 -3.505714 -3.451898 -3.399517 -3.347462 -3.295351 -3.243158 -3.190966 -3.138773 -3.086580 -3.034388 -2.982195 -2.930002 -2.877810 -2.825617 -2.773424 -2.722350 -2.673642 -2.624340 -2.575038 -2.525736 -2.476434 -2.427132 -2.377830 -2.328528 -2.279226 -2.229925 -2.180623 -2.129092 -2.075025 -2.017913 -1.956332 -1.894751 -1.833170 -1.771588 -1.710007 -1.648426 -1.586844 -1.436150 -1.098959 -0.761769 -0.410833 -0.012274 0.386284 0.784843 1.183401 1.581960 1.673492 1.656956 1.640420 1.623884 1.546206 1.449672 1.353138 1.300000 1.300000 1.300000 1.300000 1.300000 1.248000 1.179680 1.104930 1.030180 0.955430 0.880680 0.805930 0.775087 0.811507 0.847927 0.882414 0.916468 0.950521 0.813402 0.665084 0.516765 0.368446 0.220128 0.171535 0.114370 0.010621 -0.093129 -0.196878 -0.320745 -0.463268 -0.602666 -0.740978 -0.879290 -1.000101 -1.094897 -1.189692 -1.227844 -1.256797 -1.285252 -1.311908 -1.338565 -1.365222 -1.366849 -1.361483 -1.355609 -1.370410 -1.406719 -1.443029 -1.479338 -1.500000 -1.500000 -1.500000 -1.500000 -1.500000 -1.500000 -1.557432 -1.640761 -1.724089 -1.807417 -1.890745 -1.898053 -1.883587 -1.868258 -1.852930 -1.837601 -1.824214 -1.812489 -1.747795 -1.593202 -1.438609 -1.296249 -1.244281 -1.192313 -1.140346 -1.151024 -1.168191 -1.187163 -1.207453 -1.227744 -1.248034 -1.266040 -1.280024 -1.298364 -1.316720 -1.335076 -1.353432 -1.371788 -1.388450 -1.406806 -1.422158 -1.437446 -1.452734 -1.468580 -1.487303 -1.504883 -1.522463 -1.540043 -1.557623 -1.578472 -1.599590 -1.621286 -1.643088 -1.664891 -1.689235 -1.714096 -1.738957 -1.764254 -1.790301 -1.818358 -1.846792 -1.875226 -1.903659 -1.931084 -1.953727 -1.976530 -1.999333 -2.022137 -2.044727 -2.066516 -2.088124 -2.109374 -2.130623 -2.150295 -2.169233 -2.188170 -2.207098 -2.222540 -2.234506 -2.236065 -2.237624 -2.236807 -2.231829 -2.214148 -2.196466 -2.178785 -2.161103 -2.144590 -2.118053 -2.062989 -2.007633 -1.952276 -1.896919 -1.830588 -1.752107 -1.673627 -1.590962 -1.504976 -1.410558 -1.312671 -1.214785 -1.116898 -1.019261 -0.926969 -0.837546 -0.748122 -0.658698 -0.571745 -0.489114 -0.406484 -0.342428 -0.280315 -0.227803 -0.181286 -0.134769 -0.088252 -0.045094 -0.047884
-4.260895 -4.260895 -4.260895 -4.667574 -4.636485 -4.604510 -4.572973 -4.541622 -4.510999 -4.480429 -4.444557 -4.407221 -4.369885 -4.332549 -4.295213 -4.274130 -4.253226 -4.197738 -4.142249 -4.087590 -4.033690 -3.979791 -3.925892 -3.871993 -3.818094 -3.764194 -3.710295 -3.656396 -3.602497 -3.548598 -3.494698 -3.440799 -3.388045 -3.335367 -3.282690 -3.230123 -3.177930 -3.125738 -3.073545 -3.021352 -2.969160 -2.916967 -2.864774 -2.812582 -2.760389 -2.709954 -2.661579 -2.613205 -2.564830 -2.516455 -2.467487 -2.418185 -2.368883 -2.319581 -2.270279 -2.220977 -2.171675 -2.119179 -2.065112 -2.011045 -1.956977 -1.902910 -1.848843 -1.788259 -1.726678 -1.665097 -1.603516 -1.392578 -1.055388 -0.718198 -0.381007 -0.043817 0.293373 0.630930 1.029489 1.428047 1.427998 1.411462 1.394926 1.378391 1.361855 1.345319 1.328783 1.300000 1.305024 1.320100 1.335176 1.350252 1.365327 1.351618 1.260380 1.183452 1.106524 1.029597 0.952669 0.913916 0.923302 0.957090 0.991144 1.025198 1.059252 0.893009 0.721480 0.569989 0.421670 0.273352 0.230807 0.235132 0.239457 0.140786 0.037037 -0.086631 -0.229154 -0.371678 -0.513782 -0.652094 -0.774707 -0.869502 -0.964298 -1.059094 -1.143784 -1.172408 -1.199065 -1.225722 -1.252379 -1.279035 -1.305692 -1.329774 -1.360985 -1.391768 -1.422550 -1.453333 -1.500000 -1.500000 -1.500000 -1.500000 -1.500000 -1.500000 -1.545429 -1.628757 -1.712086 -1.795414 -1.784033 -1.771262 -1.757246 -1.741918 -1.726589 -1.713835 -1.702109 -1.690384 -1.655701 -1.501108 -1.370801 -1.318834 -1.266866 -1.214898 -1.162930 -1.156732 -1.175825 -1.196115 -1.216405 -1.236696 -1.256986 -1.276727 -1.294214 -1.310056 -1.325898 -1.341740 -1.357582 -1.375248 -1.392881 -1.408169 -1.423457 -1.438745 -1.454095 -1.473337 -1.492578 -1.510190 -1.527770 -1.545350 -1.565552 -1.586671 -1.607790 -1.629247 -1.651050 -1.674706 -1.699566 -1.724427 -1.749288 -1.774149 -1.801568 -1.828171 -1.850180 -1.872189 -1.894198 -1.915939 -1.938060 -1.960863 -1.983667 -2.006470 -2.028379 -2.050168 -2.071958 -2.093260 -2.113891 -2.132829 -2.151767 -2.170704 -2.184925 -2.189026 -2.190585 -2.192143 -2.193702 -2.189874 -2.185119 -2.173389 -2.155708 -2.138026 -2.120345 -2.092574 -2.058121 -2.000376 -1.942632 -1.886149 -1.830792 -1.775435 -1.697523 -1.613426 -1.527440 -1.441454 -1.353260 -1.255374 -1.157487 -1.059601 -0.967896 -0.878474 -0.790202 -0.701930 -0.612986 -0.523562 -0.439623 -0.377442 -0.315328 -0.253215 -0.191588 -0.145071 -0.098554 -0.055920 -0.038486 -0.047884
-4.258373 -4.258373 -4.258373 -4.662056 -4.631099 -4.599161 -4.567552 -4.536200 -4.505447 -4.474877 -4.440542 -4.403206 -4.365871 -4.328535 -4.291199 -4.272540 -4.247848 -4.192359 -4.136870 -4.081381 -4.025892 -3.970403 -3.914914 -3.860636 -3.806737 -3.752838 -3.698938 -3.645039 -3.591140 -3.537241 -3.483342 -3.429522 -3.376845 -3.324167 -3.271489 -3.218812 -3.166134 -3.113457 -3.060779 -3.008317 -2.956125 -2.903932 -2.851739 -2.799547 -2.747354 -2.697559 -2.649184 -2.600809 -2.552434 -2.504059 -2.455684 -2.407309 -2.358934 -2.310559 -2.261332 -2.212030 -2.162728 -2.109267 -2.055199 -2.001132 -1.947065 -1.892998 -1.838930 -1.784863 -1.730796 -1.676728 -1.620187 -1.349007 -1.011817 -0.684071 -0.369059 -0.054046 0.260966 0.575979 0.890991 1.191793 1.403344 1.417888 1.432432 1.446976 1.461521 1.476065 1.490609 1.504119 1.517402 1.532089 1.547165 1.562240 1.577316 1.544723 1.438289 1.331856 1.246097 1.169169 1.092241 1.064212 1.073598 1.082984 1.099874 1.133928 1.155607 0.984078 0.812549 0.641020 0.474894 0.326576 0.290080 0.294404 0.298729 0.303054 0.270952 0.147483 0.004960 -0.137564 -0.280087 -0.422611 -0.549313 -0.646114 -0.746545 -0.846977 -0.947408 -1.047437 -1.114212 -1.146518 -1.178824 -1.211130 -1.243436 -1.274666 -1.305448 -1.336230 -1.369280 -1.441135 -1.500000 -1.500000 -1.500000 -1.500000 -1.500000 -1.500000 -1.533426 -1.616754 -1.682782 -1.670012 -1.657242 -1.644472 -1.630905 -1.615577 -1.603455 -1.591730 -1.580005 -1.568280 -1.556555 -1.445354 -1.393386 -1.341418 -1.289450 -1.232554 -1.165541 -1.159870 -1.177990 -1.196109 -1.214229 -1.232349 -1.250469 -1.272806 -1.289979 -1.305821 -1.321663 -1.337505 -1.354953 -1.375037 -1.394181 -1.409469 -1.424757 -1.440045 -1.458852 -1.478093 -1.497335 -1.515497 -1.533077 -1.552633 -1.573752 -1.594871 -1.615990 -1.637208 -1.660176 -1.685037 -1.709898 -1.730884 -1.750514 -1.770158 -1.791285 -1.813294 -1.835303 -1.857312 -1.879162 -1.900760 -1.922393 -1.945196 -1.968000 -1.990241 -2.012030 -2.033820 -2.055610 -2.077146 -2.096425 -2.111431 -2.121494 -2.131556 -2.139715 -2.145104 -2.146663 -2.148222 -2.147697 -2.142942 -2.138186 -2.132631 -2.114949 -2.091125 -2.057619 -2.024112 -1.990605 -1.943835 -1.886090 -1.828346 -1.770601 -1.712857 -1.636386 -1.549904 -1.463918 -1.377932 -1.291945 -1.198076 -1.100189 -1.009281 -0.918672 -0.828063 -0.739693 -0.651421 -0.563149 -0.476526 -0.408563 -0.348711 -0.288228 -0.226115 -0.164001 -0.108857 -0.066746 -0.037183 -0.047884 -0.047884
-4.258373 -4.258373 -4.258373 -4.656538 -4.625681 -4.593811 -4.562130 -4.530778 -4.499896 -4.469325 -4.436528 -4.399192 -4.361856 -4.324520 -4.288185 -4.270950 -4.242469 -4.186980 -4.131491 -4.076002 -4.020513 -3.965024 -3.909536 -3.854047 -3.798558 -3.743069 -3.687581 -3.633682 -3.579783 -3.525884 -3.471985 -3.418322 -3.365644 -3.312967 -3.260289 -3.207612 -3.154934 -3.102256 -3.049579 -2.996901 -2.944224 -2.891546 -2.838868 -2.786511 -2.734319 -2.685163 -2.636789 -2.588414 -2.540039 -2.491664 -2.443289 -2.394914 -2.346539 -2.298077 -2.249597 -2.201118 -2.152779 -2.104326 -2.051320 -1.998314 -1.945308 -1.892301 -1.839295 -1.786289 -1.733283 -1.680277 -1.627271 -1.426783 -1.223195 -0.987293 -0.672280 -0.357268 -0.042255 0.272757 0.587770 0.872267 1.104183 1.336098 1.568013 1.662902 1.677446 1.691990 1.706534 1.719820 1.733103 1.746386 1.759669 1.774229 1.789305 1.737828 1.631394 1.524960 1.418527 1.312093 1.231813 1.214509 1.223895 1.233281 1.242667 1.252053 1.246676 1.075147 0.903617 0.732088 0.560404 0.388273 0.361930 0.372071 0.382212 0.392353 0.402494 0.330792 0.178988 0.028334 -0.122319 -0.272973 -0.406044 -0.486843 -0.584077 -0.684508 -0.784939 -0.885371 -0.979449 -1.073298 -1.123114 -1.155420 -1.187726 -1.219128 -1.249911 -1.288292 -1.360147 -1.432002 -1.500000 -1.500000 -1.500000 -1.500000 -1.500000 -1.500000 -1.521422 -1.568762 -1.555992 -1.543222 -1.530451 -1.517681 -1.504801 -1.500000 -1.500000 -1.500000 -1.500000 -1.500000 -1.447710 -1.371566 -1.304553 -1.237540 -1.170527 -1.103515 -1.118176 -1.149301 -1.167421 -1.185540 -1.203660 -1.221968 -1.244314 -1.266660 -1.285744 -1.301586 -1.317428 -1.334657 -1.354742 -1.374826 -1.394911 -1.410768 -1.426056 -1.444367 -1.463608 -1.482850 -1.502092 -1.520804 -1.539714 -1.560833 -1.581952 -1.603071 -1.621589 -1.638711 -1.657967 -1.677597 -1.697227 -1.716857 -1.736492 -1.756162 -1.776408 -1.798417 -1.820426 -1.842386 -1.863983 -1.885581 -1.907178 -1.929530 -1.952103 -1.973892 -1.995682 -2.017472 -2.035070 -2.048000 -2.058062 -2.068125 -2.078188 -2.088108 -2.093872 -2.099635 -2.102742 -2.104301 -2.100764 -2.096009 -2.091253 -2.084432 -2.056705 -2.022663 -1.989156 -1.955649 -1.922143 -1.887294 -1.829549 -1.771804 -1.710570 -1.643296 -1.576023 -1.489847 -1.402925 -1.316002 -1.229080 -1.141275 -1.050666 -0.960056 -0.869447 -0.778838 -0.689185 -0.600913 -0.516081 -0.445555 -0.375029 -0.311570 -0.251719 -0.191867 -0.132016 -0.078757 -0.048009 -0.018446 -0.083056 -0.047884
-4.258373 -4.258373 -4.258373 -4.651019 -4.620263 -4.588461 -4.556708 -4.525356 -4.494344 -4.463774 -4.432513 -4.395178 -4.357842 -4.320506 -4.286313 -4.269150 -4.237090 -4.181601 -4.126112 -4.070623 -4.015135 -3.959646 -3.904157 -3.848668 -3.793179 -3.737690 -3.682201 -3.626712 -3.571224 -3.515735 -3.460628 -3.407122 -3.354444 -3.301766 -3.249089 -3.196343 -3.143298 -3.090253 -3.037208 -2.984163 -2.931118 -2.878073 -2.825028 -2.771983 -2.718961 -2.671088 -2.623216 -2.574778 -2.526299 -2.477820 -2.429340 -2.380861 -2.332381 -2.283902 -2.235423 -2.186943 -2.139002 -2.092226 -2.045449 -1.998672 -1.951895 -1.899760 -1.846754 -1.793748 -1.740742 -1.687736 -1.604856 -1.401268 -1.197680 -0.994092 -0.790504 -0.586915 -0.345477 -0.030464 0.284548 0.552742 0.784657 1.016572 1.248488 1.480403 1.712318 1.907915 1.922238 1.935521 1.948804 1.962087 1.975370 1.988653 2.000000 1.929193 1.821256 1.713319 1.605382 1.497446 1.389509 1.377106 1.388273 1.399441 1.410608 1.421776 1.378322 1.159048 0.986916 0.814785 0.642654 0.470522 0.471730 0.511061 0.521202 0.531343 0.541484 0.473800 0.318317 0.163942 0.013288 -0.137365 -0.275337 -0.356135 -0.436933 -0.522040 -0.622471 -0.722902 -0.817611 -0.911461 -1.005310 -1.099160 -1.132017 -1.163591 -1.207303 -1.279158 -1.351014 -1.422869 -1.494724 -1.500000 -1.500000 -1.500000 -1.500000 -1.500000 -1.500000 -1.500000 -1.500000 -1.500000 -1.500000 -1.500000 -1.500000 -1.500000 -1.500000 -1.500000 -1.500000 -1.427739 -1.326255 -1.242527 -1.175514 -1.108501 -1.041488 -1.070109 -1.103596 -1.137083 -1.156852 -1.174972 -1.193476 -1.215822 -1.238169 -1.260515 -1.281509 -1.297351 -1.314361 -1.334446 -1.354531 -1.374615 -1.394700 -1.412068 -1.429882 -1.449123 -1.468365 -1.487607 -1.506149 -1.522602 -1.539601 -1.556586 -1.573571 -1.590556 -1.607541 -1.625329 -1.643940 -1.663570 -1.683200 -1.702830 -1.722496 -1.742167 -1.761837 -1.783540 -1.805549 -1.827207 -1.848804 -1.870402 -1.891999 -1.913863 -1.935322 -1.949873 -1.964424 -1.978975 -1.993012 -2.004236 -2.014757 -2.024820 -2.034883 -2.042265 -2.048028 -2.053792 -2.058820 -2.058587 -2.053832 -2.044839 -2.032490 -2.018043 -1.996859 -1.961064 -1.925268 -1.889472 -1.853680 -1.820173 -1.773008 -1.708186 -1.640913 -1.573639 -1.506366 -1.430231 -1.343309 -1.256386 -1.170282 -1.086648 -0.999258 -0.909403 -0.819549 -0.729613 -0.639004 -0.555636 -0.485110 -0.414585 -0.344059 -0.274429 -0.214578 -0.154726 -0.102968 -0.065037 -0.029273 0.000290 0.067761 0.067761
-4.269132 -4.269132 -4.269132 -4.645501 -4.614845 -4.583111 -4.551286 -4.519934 -4.488792 -4.458222 -4.427652 -4.391163 -4.353827 -4.316491 -4.284441 -4.267288 -4.231711 -4.176061 -4.119951 -4.063840 -4.007730 -3.951619 -3.895509 -3.839398 -3.783288 -3.727177 -3.671067 -3.614956 -3.558846 -3.502735 -3.446625 -3.391081 -3.336678 -3.284364 -3.231707 -3.178662 -3.125617 -3.072572 -3.019527 -2.966482 -2.913437 -2.860392 -2.807347 -2.754301 -2.702550 -2.654678 -2.606806 -2.558933 -2.511061 -2.463189 -2.415165 -2.366686 -2.318206 -2.269727 -2.221248 -2.172768 -2.125226 -2.078449 -2.031672 -1.984895 -1.938119 -1.891342 -1.844565 -1.797788 -1.748201 -1.695195 -1.579341 -1.375752 -1.172164 -0.968576 -0.764988 -0.561400 -0.357812 -0.148812 0.075291 0.294161 0.550688 0.807216 1.063744 1.320271 1.576799 1.833327 2.000000 2.000000 2.000000 2.000000 2.000000 2.000000 2.000000 2.000000 1.989300 1.881363 1.773426 1.665490 1.557553 1.559904 1.567925 1.578265 1.589432 1.600600 1.537045 1.312254 1.087463 0.897034 0.724903 0.552772 0.560421 0.604703 0.648984 0.670333 0.680474 0.616809 0.461325 0.305841 0.150358 -0.001758 -0.144629 -0.225427 -0.306225 -0.387024 -0.467822 -0.560434 -0.655773 -0.749623 -0.843472 -0.937322 -1.031171 -1.123788 -1.192861 -1.261933 -1.331006 -1.400078 -1.482089 -1.500000 -1.500000 -1.500000 -1.500000 -1.500000 -1.500000 -1.500000 -1.500000 -1.500000 -1.500000 -1.500000 -1.500000 -1.500000 -1.500000 -1.500000 -1.407767 -1.306283 -1.204800 -1.113487 -1.046474 -0.988555 -1.022042 -1.055529 -1.089015 -1.122502 -1.146283 -1.164985 -1.187331 -1.209677 -1.232023 -1.254369 -1.276716 -1.294065 -1.314150 -1.334235 -1.354319 -1.374042 -1.391628 -1.409768 -1.425814 -1.441860 -1.457905 -1.473951 -1.490160 -1.508202 -1.525553 -1.542538 -1.559523 -1.576508 -1.594145 -1.611947 -1.629913 -1.649543 -1.669173 -1.688829 -1.708500 -1.728171 -1.747842 -1.768663 -1.790431 -1.812028 -1.833626 -1.849857 -1.865576 -1.879532 -1.893779 -1.908330 -1.922881 -1.937432 -1.949206 -1.960430 -1.971451 -1.981514 -1.990658 -1.996421 -2.002185 -2.007948 -2.013711 -2.005246 -1.992896 -1.980547 -1.968197 -1.950386 -1.930945 -1.901218 -1.865423 -1.829627 -1.793831 -1.755132 -1.708346 -1.639747 -1.571255 -1.503982 -1.436708 -1.369435 -1.283692 -1.198193 -1.114559 -1.030925 -0.946871 -0.857016 -0.767161 -0.677306 -0.593400 -0.520366 -0.451871 -0.383375 -0.313088 -0.242562 -0.177437 -0.127179 -0.089248 -0.051317 -0.013387 0.019027 0.067761 0.067761
-4.269132 -4.269132 -4.269132 -4.639982 -4.609427 -4.577762 -4.545864 -4.514513 -4.483241 -4.452670 -4.422100 -4.387149 -4.349813 -4.312477 -4.282568 -4.265408 -4.217558 -4.157961 -4.102539 -4.047117 -3.991032 -3.934921 -3.878811 -3.822700 -3.766590 -3.710479 -3.654369 -3.598258 -3.542148 -3.486037 -3.429927 -3.374642 -3.319578 -3.264515 -3.211610 -3.159296 -3.106981 -3.054666 -3.001845 -2.948800 -2.895755 -2.842710 -2.789665 -2.736620 -2.686139 -2.638267 -2.590395 -2.542523 -2.494651 -2.446778 -2.398906 -2.351034 -2.303162 -2.255289 -2.207073 -2.158593 -2.111449 -2.064672 -2.017895 -1.971119 -1.924342 -1.878425 -1.833028 -1.787631 -1.742234 -1.696836 -1.483238 -1.201641 -0.977538 -0.753435 -0.529332 -0.305229 -0.081126 0.142977 0.367079 0.520769 0.670912 0.851569 1.108096 1.364624 1.621152 1.877679 2.000000 2.000000 2.000000 2.000000 2.000000 2.000000 2.000000 2.000000 2.000000 2.000000 1.941470 1.833533 1.735326 1.743347 1.751367 1.759388 1.768256 1.779424 1.695768 1.470977 1.246186 1.021395 0.807153 0.635021 0.649112 0.693394 0.737676 0.781957 0.819464 0.759817 0.604333 0.448849 0.293366 0.137882 -0.013921 -0.094753 -0.175714 -0.256676 -0.337638 -0.418600 -0.557676 -0.668696 -0.776638 -0.884580 -0.992522 -1.090833 -1.159905 -1.228978 -1.298050 -1.381449 -1.470730 -1.500000 -1.500000 -1.500000 -1.500000 -1.500000 -1.500000 -1.500000 -1.500000 -1.500000 -1.500000 -1.500000 -1.500000 -1.500000 -1.489278 -1.387795 -1.286312 -1.184828 -1.083345 -0.984448 -0.940488 -0.973974 -1.007461 -1.040948 -1.074435 -1.107922 -1.136493 -1.158839 -1.179768 -1.200186 -1.220604 -1.241021 -1.262455 -1.282781 -1.300367 -1.317952 -1.335538 -1.353124 -1.372373 -1.393299 -1.409661 -1.425707 -1.441753 -1.457798 -1.475759 -1.493802 -1.511505 -1.528490 -1.545475 -1.562962 -1.580763 -1.598565 -1.616366 -1.635516 -1.655163 -1.674834 -1.694504 -1.714175 -1.733762 -1.748221 -1.763940 -1.779659 -1.795378 -1.811097 -1.825784 -1.838662 -1.852235 -1.866787 -1.881338 -1.894177 -1.905401 -1.916624 -1.927848 -1.938209 -1.944814 -1.950578 -1.951811 -1.951307 -1.948762 -1.940954 -1.928604 -1.916254 -1.902169 -1.882728 -1.863288 -1.841373 -1.805577 -1.769518 -1.724370 -1.679222 -1.634074 -1.575449 -1.506850 -1.438251 -1.369652 -1.301053 -1.226104 -1.142470 -1.058836 -0.975202 -0.891568 -0.804628 -0.714773 -0.632462 -0.557481 -0.482500 -0.412288 -0.343793 -0.275298 -0.206802 -0.148584 -0.112226 -0.075528 -0.037598 0.000333 0.037764 0.067761 0.067761
-4.269132 -4.269132 -4.269132 -4.634464 -4.604009 -4.572412 -4.540442 -4.509091 -4.477739 -4.447119 -4.416549 -4.383134 -4.345798 -4.308463 -4.280696 -4.263352 -4.205236 -4.145025 -4.084813 -4.027817 -3.972395 -3.916973 -3.861552 -3.806002 -3.749892 -3.693781 -3.637671 -3.581560 -3.525450 -3.469339 -3.413267 -3.358203 -3.303140 -3.248076 -3.193012 -3.138857 -3.086542 -3.034228 -2.981913 -2.929598 -2.877284 -2.824969 -2.771984 -2.718939 -2.669729 -2.621857 -2.573984 -2.526112 -2.478240 -2.430368 -2.382330 -2.334275 -2.286219 -2.238163 -2.190108 -2.142311 -2.102402 -2.062197 -2.016800 -1.971403 -1.926006 -1.880608 -1.835211 -1.789814 -1.744417 -1.699020 -1.427733 -1.117857 -0.807980 -0.498104 -0.237544 -0.013441 0.210662 0.434765 0.648153 0.798296 0.948439 1.098582 1.248725 1.408977 1.665504 1.922032 2.000000 2.000000 2.000000 2.000000 2.000000 2.000000 2.000000 2.000000 2.000000 2.000000 2.000000 2.000000 1.918769 1.926789 1.934810 1.942831 1.950851 1.958872 1.854491 1.629700 1.404909 1.180118 0.949781 0.716985 0.731069 0.772444 0.813818 0.855193 0.896567 0.881134 0.740123 0.583597 0.427071 0.270545 0.114019 0.033046 -0.046616 -0.127578 -0.208540 -0.289501 -0.419348 -0.586680 -0.739059 -0.847001 -0.954943 -1.057877 -1.126950 -1.196022 -1.280809 -1.370090 -1.459371 -1.500000 -1.500000 -1.500000 -1.500000 -1.500000 -1.500000 -1.500000 -1.500000 -1.500000 -1.500000 -1.500000 -1.500000 -1.469307 -1.367774 -1.266024 -1.164273 -1.062523 -0.960773 -0.900000 -0.929076 -0.963080 -0.997083 -1.031086 -1.065090 -1.093355 -1.111146 -1.131564 -1.151982 -1.172400 -1.192817 -1.214615 -1.239417 -1.261863 -1.279448 -1.297034 -1.314620 -1.333752 -1.354678 -1.375604 -1.393509 -1.409554 -1.425600 -1.443316 -1.461359 -1.479401 -1.497443 -1.514442 -1.531778 -1.549579 -1.567381 -1.585183 -1.602984 -1.621496 -1.638590 -1.653439 -1.668287 -1.683135 -1.697728 -1.710282 -1.725180 -1.740899 -1.756618 -1.772037 -1.784915 -1.797793 -1.810692 -1.825244 -1.839147 -1.850371 -1.861595 -1.872818 -1.884042 -1.889598 -1.889095 -1.888592 -1.888089 -1.887585 -1.881662 -1.875454 -1.864312 -1.851962 -1.834512 -1.815071 -1.795631 -1.776190 -1.738756 -1.693608 -1.648460 -1.603312 -1.558164 -1.511150 -1.442551 -1.373952 -1.305353 -1.236739 -1.168124 -1.086054 -1.002639 -0.919224 -0.835809 -0.752210 -0.671524 -0.596543 -0.521562 -0.446581 -0.372705 -0.304210 -0.235715 -0.179377 -0.130830 -0.086662 -0.051320 -0.015977 0.019365 0.054707 0.067761 0.067761
-4.269132 -4.269132 -4.269132 -4.628945 -4.598591 -4.567062 -4.535088 -4.503669 -4.472317 -4.441567 -4.410997 -4.379120 -4.341784 -4.304448 -4.278824 -4.253127 -4.192915 -4.132703 -4.072491 -4.012280 -3.953095 -3.897674 -3.842252 -3.786830 -3.731408 -3.675986 -3.620564 -3.564862 -3.508752 -3.452641 -3.396828 -3.341765 -3.286701 -3.231637 -3.176574 -3.121510 -3.066446 -3.013789 -2.961474 -2.909159 -2.856845 -2.804530 -2.752216 -2.699936 -2.651465 -2.604174 -2.556118 -2.508063 -2.460007 -2.411951 -2.363896 -2.315840 -2.267784 -2.219729 -2.171673 -2.125988 -2.086079 -2.046170 -2.006261 -1.966353 -1.926444 -1.882792 -1.837395 -1.791998 -1.746600 -1.682103 -1.372227 -1.062351 -0.752475 -0.442598 -0.132722 0.177154 0.487030 0.726553 0.925680 1.075823 1.225966 1.376109 1.526252 1.676395 1.826538 1.976681 2.000000 2.000000 2.000000 2.000000 2.000000 2.000000 2.000000 2.000000 2.000000 2.000000 2.000000 2.000000 2.000000 2.000000 2.000000 2.000000 2.000000 2.000000 1.877602 1.656238 1.423442 1.190646 0.957850 0.725053 0.762221 0.817827 0.859201 0.900576 0.941950 0.931382 0.828121 0.714204 0.557678 0.401152 0.244626 0.157260 0.079362 0.001464 -0.079441 -0.160403 -0.281020 -0.448352 -0.615685 -0.783017 -0.917364 -1.024922 -1.093994 -1.180169 -1.269450 -1.358731 -1.448012 -1.500000 -1.500000 -1.499781 -1.491726 -1.483671 -1.476693 -1.500000 -1.500000 -1.500000 -1.500000 -1.500000 -1.447659 -1.344362 -1.242612 -1.140862 -1.039111 -0.937361 -0.900000 -0.900000 -0.921605 -0.955608 -0.989611 -1.023614 -1.048871 -1.066338 -1.083806 -1.103778 -1.124196 -1.144614 -1.166774 -1.191576 -1.216378 -1.240945 -1.258530 -1.276116 -1.295131 -1.316057 -1.336982 -1.357908 -1.377356 -1.393402 -1.410874 -1.428916 -1.446958 -1.465001 -1.483043 -1.500594 -1.518396 -1.533612 -1.547514 -1.561417 -1.575306 -1.587964 -1.602813 -1.617661 -1.632509 -1.647358 -1.660155 -1.672709 -1.686419 -1.702138 -1.717857 -1.731167 -1.744045 -1.756924 -1.769802 -1.783700 -1.795341 -1.806439 -1.812588 -1.818737 -1.824466 -1.825674 -1.825373 -1.824870 -1.824367 -1.820770 -1.814562 -1.808354 -1.800019 -1.786295 -1.766854 -1.747396 -1.725040 -1.701446 -1.668655 -1.621729 -1.574802 -1.527875 -1.482254 -1.437106 -1.378252 -1.309648 -1.241033 -1.172419 -1.103804 -1.029414 -0.945999 -0.862585 -0.779170 -0.704498 -0.631732 -0.558370 -0.485007 -0.410662 -0.335681 -0.264627 -0.210170 -0.161624 -0.113077 -0.064531 -0.025755 0.009587 0.044930 0.069218 0.067761 0.067761
-4.293493 -4.293493 -4.293493 -4.623427 -4.593173 -4.561713 -4.529738 -4.498247 -4.466895 -4.436015 -4.405445 -4.374875 -4.337770 -4.300434 -4.276951 -4.240806 -4.180594 -4.120382 -4.060170 -3.999958 -3.939746 -3.879535 -3.822952 -3.767530 -3.712108 -3.656686 -3.601264 -3.545843 -3.490421 -3.434999 -3.379728 -3.325326 -3.270262 -3.215199 -3.160135 -3.105071 -3.050008 -2.994944 -2.941035 -2.888721 -2.836406 -2.784091 -2.731777 -2.680509 -2.631616 -2.582722 -2.535334 -2.488173 -2.441012 -2.393517 -2.345461 -2.297405 -2.249350 -2.201294 -2.153238 -2.109665 -2.069756 -2.029847 -1.989938 -1.950029 -1.910121 -1.870212 -1.830303 -1.790394 -1.748784 -1.626597 -1.316721 -1.006845 -0.694417 -0.361242 -0.028067 0.305108 0.638284 0.971459 1.137366 1.203449 1.337174 1.470900 1.604625 1.738350 1.872076 2.000000 2.000000 2.000000 2.000000 2.000000 2.000000 2.000000 2.000000 2.000000 2.000000 2.000000 2.000000 2.000000 2.000000 2.000000 2.000000 2.000000 2.000000 2.000000 1.859361 1.645498 1.431510 1.198714 0.965918 0.733122 0.777902 0.839920 0.901938 0.945959 0.987333 0.981630 0.878369 0.775107 0.671846 0.531759 0.375233 0.281473 0.203575 0.125677 0.047779 -0.031304 -0.142692 -0.310024 -0.477357 -0.644689 -0.812021 -0.978927 -1.069828 -1.149865 -1.229902 -1.309939 -1.389976 -1.444316 -1.436260 -1.428205 -1.420150 -1.419124 -1.469445 -1.500000 -1.500000 -1.500000 -1.500000 -1.426662 -1.322861 -1.219200 -1.117450 -1.015700 -0.913950 -0.900000 -0.900000 -0.900000 -0.914133 -0.948136 -0.982139 -1.004386 -1.021854 -1.039321 -1.056789 -1.075992 -1.096410 -1.118933 -1.143735 -1.168537 -1.193339 -1.218141 -1.237612 -1.256509 -1.277435 -1.298361 -1.319287 -1.340213 -1.361139 -1.378431 -1.396473 -1.412256 -1.427196 -1.442136 -1.457112 -1.471922 -1.485825 -1.499727 -1.513630 -1.527533 -1.540323 -1.552907 -1.567035 -1.581883 -1.596732 -1.610027 -1.622582 -1.635136 -1.647690 -1.663378 -1.677420 -1.690298 -1.703176 -1.716054 -1.726448 -1.733057 -1.739207 -1.745356 -1.751505 -1.757655 -1.760008 -1.761216 -1.761651 -1.761148 -1.759879 -1.753671 -1.747462 -1.741254 -1.735046 -1.717911 -1.695555 -1.673200 -1.650845 -1.623949 -1.594605 -1.552630 -1.505704 -1.458777 -1.411850 -1.364924 -1.314451 -1.245406 -1.176713 -1.108098 -1.039484 -0.970869 -0.889360 -0.805945 -0.733385 -0.661111 -0.588836 -0.515576 -0.442214 -0.368851 -0.295489 -0.237289 -0.190918 -0.143870 -0.095324 -0.046777 -0.000190 0.035152 0.058699 0.078708 0.067761 0.067761
-4.293493 -4.293493 -4.293493 -4.617909 -4.587755 -4.556363 -4.524389 -4.492825 -4.461473 -4.430464 -4.399894 -4.369323 -4.333755 -4.296419 -4.275079 -4.228484 -4.168272 -4.108061 -4.047849 -3.987637 -3.927425 -3.867213 -3.807002 -3.748230 -3.692808 -3.637386 -3.581965 -3.526543 -3.471121 -3.415699 -3.359880 -3.304004 -3.250015 -3.196597 -3.143178 -3.088633 -3.033569 -2.978505 -2.923442 -2.868378 -2.815967 -2.763652 -2.711338 -2.661083 -2.612189 -2.563295 -2.514402 -2.466363 -2.419202 -2.372042 -2.324881 -2.277720 -2.230560 -2.182859 -2.134803 -2.093341 -2.053432 -2.013524 -1.973615 -1.933968 -1.894360 -1.854752 -1.815143 -1.775535 -1.735927 -1.504325 -1.085999 -0.706074 -0.372899 -0.039724 0.293451 0.626627 0.959802 1.292977 1.399230 1.415817 1.432405 1.494227 1.627953 1.761678 1.895403 2.000000 2.000000 2.000000 2.000000 2.000000 2.000000 2.000000 2.000000 2.000000 2.000000 2.000000 2.000000 2.000000 2.000000 2.000000 2.000000 2.000000 2.000000 2.000000 1.841120 1.627257 1.413394 1.199531 0.973986 0.741190 0.793583 0.855601 0.917619 0.979637 1.032717 1.031878 0.928617 0.825355 0.722094 0.618833 0.505840 0.405687 0.327789 0.249890 0.184054 0.119684 0.025827 -0.138320 -0.296307 -0.454293 -0.612279 -0.770266 -0.922871 -1.067228 -1.147265 -1.227302 -1.307338 -1.372740 -1.364684 -1.356629 -1.361554 -1.411875 -1.462196 -1.500000 -1.500000 -1.500000 -1.405664 -1.301864 -1.198063 -1.094262 -0.992288 -0.900000 -0.900000 -0.900000 -0.900000 -0.900000 -0.906661 -0.940664 -0.959902 -0.977369 -0.994837 -1.012304 -1.029772 -1.048206 -1.071092 -1.095894 -1.120696 -1.145499 -1.170301 -1.195103 -1.217888 -1.236904 -1.255468 -1.274033 -1.292597 -1.311161 -1.330954 -1.347775 -1.362715 -1.377655 -1.392595 -1.407542 -1.422787 -1.438032 -1.451941 -1.465843 -1.479746 -1.492757 -1.505341 -1.517925 -1.531257 -1.546105 -1.559900 -1.572454 -1.585009 -1.597563 -1.610117 -1.623672 -1.634356 -1.643081 -1.651806 -1.660530 -1.667870 -1.672309 -1.678124 -1.684273 -1.690423 -1.694341 -1.695549 -1.696757 -1.697929 -1.697426 -1.692779 -1.686571 -1.680363 -1.671971 -1.661911 -1.643715 -1.621360 -1.599005 -1.575796 -1.546453 -1.517109 -1.483532 -1.436605 -1.389679 -1.341586 -1.292606 -1.243627 -1.182838 -1.113794 -1.044749 -0.975704 -0.906659 -0.834547 -0.762272 -0.689998 -0.617723 -0.545449 -0.472783 -0.399420 -0.326057 -0.269704 -0.214725 -0.163694 -0.117323 -0.070952 -0.024582 0.021789 0.048179 0.068189 0.088199 0.067761 0.067761
-4.293493 -4.293493 -4.293493 -4.612390 -4.582337 -4.551013 -4.519039 -4.487403 -4.456052 -4.424912 -4.394342 -4.363772 -4.329741 -4.292405 -4.273203 -4.211601 -4.151762 -4.093910 -4.035527 -3.975316 -3.915104 -3.854892 -3.794680 -3.734468 -3.674257 -3.618087 -3.562665 -3.507243 -3.451821 -3.396310 -3.340433 -3.284557 -3.228680 -3.173719 -3.120301 -3.066883 -3.013465 -2.960047 -2.906628 -2.851939 -2.796876 -2.743214 -2.690899 -2.641656 -2.592763 -2.543869 -2.494975 -2.446082 -2.397393 -2.350232 -2.303071 -2.255911 -2.208750 -2.161589 -2.115087 -2.077155 -2.039206 -1.999598 -1.959990 -1.920382 -1.880773 -1.841165 -1.801557 -1.761949 -1.722340 -1.408929 -0.990603 -0.572277 -0.153951 0.264374 0.614969 0.948145 1.281320 1.614495 1.661093 1.677681 1.694268 1.710856 1.727443 1.785005 1.918731 2.000000 2.000000 2.000000 2.000000 2.000000 2.000000 2.000000 2.000000 2.000000 2.000000 2.000000 2.000000 2.000000 2.000000 2.000000 2.000000 2.000000 2.000000 2.000000 1.822880 1.609017 1.395153 1.181290 0.967427 0.749259 0.809265 0.871282 0.936942 1.010593 1.084244 1.098829 1.000505 0.903570 0.806635 0.709700 0.612765 0.586681 0.553045 0.488675 0.424305 0.359935 0.278615 0.094421 -0.087646 -0.245632 -0.403618 -0.561605 -0.715016 -0.866059 -1.017102 -1.144664 -1.224701 -1.301164 -1.293108 -1.303984 -1.354305 -1.404626 -1.454947 -1.500000 -1.488468 -1.384667 -1.280866 -1.177066 -1.073265 -0.969464 -0.900000 -0.900000 -0.900000 -0.900000 -0.900000 -0.902449 -0.900790 -0.915505 -0.933010 -0.950515 -0.968020 -0.985526 -1.003031 -1.013306 -1.036452 -1.059598 -1.082745 -1.105891 -1.129038 -1.154062 -1.179730 -1.198295 -1.216859 -1.235423 -1.253987 -1.273789 -1.294570 -1.313174 -1.328114 -1.343054 -1.357994 -1.373217 -1.388462 -1.403708 -1.418057 -1.431959 -1.445191 -1.457775 -1.470358 -1.482942 -1.495526 -1.509773 -1.522327 -1.534881 -1.544432 -1.553458 -1.562103 -1.568439 -1.577164 -1.585888 -1.594613 -1.603037 -1.607476 -1.611914 -1.617041 -1.623191 -1.628674 -1.629882 -1.631090 -1.632298 -1.633506 -1.631888 -1.623954 -1.615378 -1.606803 -1.598228 -1.584371 -1.569348 -1.547165 -1.524809 -1.498300 -1.468956 -1.439612 -1.410268 -1.366959 -1.317979 -1.269000 -1.220020 -1.171040 -1.120271 -1.051226 -0.982181 -0.913136 -0.847811 -0.785929 -0.716293 -0.645066 -0.573840 -0.502061 -0.429787 -0.357402 -0.302422 -0.247443 -0.192464 -0.137484 -0.090098 -0.043728 0.002643 0.030864 0.057387 0.077679 0.097689 0.124137 0.124137
-4.293493 -4.293493 -4.293493 -4.606872 -4.576919 -4.545663 -4.513689 -4.481982 -4.450630 -4.419360 -4.388790 -4.358220 -4.325726 -4.290319 -4.256845 -4.195243 -4.133641 -4.072381 -4.014529 -3.956677 -3.898826 -3.840974 -3.782359 -3.722147 -3.661935 -3.601723 -3.543365 -3.487943 -3.432521 -3.376863 -3.320986 -3.265110 -3.209233 -3.153356 -3.097480 -3.044006 -2.990587 -2.937169 -2.883751 -2.830333 -2.776915 -2.723497 -2.670891 -2.622230 -2.573336 -2.524442 -2.475549 -2.426655 -2.377762 -2.328868 -2.281261 -2.234101 -2.186940 -2.139779 -2.095716 -2.057784 -2.019852 -1.981920 -1.943988 -1.906056 -1.867187 -1.827579 -1.787970 -1.748362 -1.708754 -1.313533 -0.895207 -0.476882 -0.058556 0.359770 0.778096 1.196422 1.602838 1.906369 1.922957 1.939544 1.956132 1.972719 1.989307 2.000000 2.000000 2.000000 2.000000 2.000000 2.000000 2.000000 2.000000 2.000000 2.000000 2.000000 2.000000 2.000000 2.000000 2.000000 2.000000 2.000000 2.000000 2.000000 2.000000 2.000000 1.826335 1.613780 1.401225 1.188669 0.976114 0.770967 0.966101 1.067682 1.141333 1.214984 1.288635 1.310898 1.155824 1.026407 0.929472 0.832537 0.735602 0.700734 0.714990 0.728925 0.664555 0.600185 0.531403 0.347209 0.163014 -0.021180 -0.194957 -0.352944 -0.507161 -0.658204 -0.809247 -0.960290 -1.111333 -1.222101 -1.246415 -1.296736 -1.347057 -1.394895 -1.437613 -1.458726 -1.356058 -1.250602 -1.145146 -1.039691 -0.934235 -0.946114 -1.003367 -1.010476 -1.017586 -1.024695 -1.031804 -1.002203 -0.899843 -0.889200 -0.906705 -0.924210 -0.941715 -0.959221 -0.965468 -0.970953 -0.991023 -1.014169 -1.037316 -1.060462 -1.086010 -1.113074 -1.140137 -1.159685 -1.178249 -1.196813 -1.216624 -1.237405 -1.258186 -1.278573 -1.293513 -1.308453 -1.323647 -1.338892 -1.354138 -1.369383 -1.384172 -1.397625 -1.410209 -1.422792 -1.435376 -1.446211 -1.455644 -1.464059 -1.473085 -1.482112 -1.491139 -1.500166 -1.506088 -1.511671 -1.519971 -1.528695 -1.537420 -1.542643 -1.547082 -1.551520 -1.555959 -1.562108 -1.564215 -1.565423 -1.566631 -1.566032 -1.565289 -1.558786 -1.550211 -1.541635 -1.533060 -1.521854 -1.506831 -1.491808 -1.472969 -1.450147 -1.420803 -1.391459 -1.362803 -1.335299 -1.296986 -1.246893 -1.196800 -1.147434 -1.098454 -1.049474 -0.988659 -0.919614 -0.856981 -0.795099 -0.733217 -0.668467 -0.597241 -0.526014 -0.454787 -0.386754 -0.331702 -0.278675 -0.225182 -0.170203 -0.115223 -0.062873 -0.016592 0.009931 0.036453 0.062976 0.087169 0.107179 0.124137 0.124137
-4.293493 -4.293493 -4.293493 -4.601353 -4.571501 -4.540314 -4.508339 -4.476560 -4.445208 -4.413856 -4.383239 -4.352668 -4.321712 -4.288447 -4.240488 -4.178886 -4.117284 -4.055682 -3.994080 -3.935148 -3.877296 -3.819445 -3.761593 -3.703741 -3.645889 -3.588037 -3.529190 -3.468978 -3.413221 -3.357416 -3.301539 -3.245662 -3.189786 -3.133909 -3.078032 -3.022156 -2.967710 -2.914292 -2.860874 -2.807456 -2.754038 -2.700619 -2.648890 -2.598768 -2.550530 -2.503195 -2.455859 -2.407229 -2.358335 -2.309441 -2.260548 -2.212291 -2.165130 -2.117970 -2.076345 -2.038413 -2.000481 -1.962549 -1.924617 -1.886684 -1.848752 -1.810820 -1.772888 -1.734776 -1.636463 -1.218138 -0.799812 -0.382470 0.034144 0.450759 0.867374 1.283989 1.700604 2.000000 2.000000 2.000000 2.000000 2.000000 2.000000 2.000000 2.000000 2.000000 2.000000 2.000000 2.000000 2.000000 2.000000 2.000000 2.000000 2.000000 2.000000 2.000000 2.000000 2.000000 2.000000 2.000000 2.000000 2.000000 2.000000 2.000000 1.810538 1.620334 1.416822 1.204267 0.991712 0.796689 0.991823 1.186957 1.345724 1.419375 1.493026 1.522968 1.367893 1.212818 1.057744 0.955374 0.858439 0.814787 0.829043 0.843299 0.857556 0.840435 0.776065 0.599997 0.415803 0.231608 0.047414 -0.136781 -0.299305 -0.452242 -0.619950 -0.787658 -0.955366 -1.123073 -1.191932 -1.234651 -1.277369 -1.320088 -1.335587 -1.300976 -1.208513 -1.103057 -0.997601 -0.892145 -0.948183 -1.063520 -1.139831 -1.146940 -1.154049 -1.161158 -1.103617 -1.001257 -0.898897 -0.862895 -0.880400 -0.897905 -0.913431 -0.918916 -0.924401 -0.929886 -0.945593 -0.968740 -0.991886 -1.017959 -1.045022 -1.072086 -1.099149 -1.121075 -1.139639 -1.159458 -1.180240 -1.201021 -1.221802 -1.242583 -1.258912 -1.274077 -1.289322 -1.304567 -1.319813 -1.335058 -1.347651 -1.357184 -1.366718 -1.376251 -1.385784 -1.395317 -1.402927 -1.410766 -1.419793 -1.428820 -1.437846 -1.444491 -1.450074 -1.455657 -1.462778 -1.471502 -1.477810 -1.482249 -1.486687 -1.491126 -1.495565 -1.498029 -1.497287 -1.496545 -1.495802 -1.495060 -1.490705 -1.484414 -1.476468 -1.467892 -1.459317 -1.444314 -1.429291 -1.414267 -1.398774 -1.372650 -1.344389 -1.316977 -1.289565 -1.259166 -1.225560 -1.178636 -1.128542 -1.078449 -1.028356 -0.978263 -0.927957 -0.866151 -0.804269 -0.742387 -0.680504 -0.618622 -0.549415 -0.478188 -0.413335 -0.357556 -0.301777 -0.247952 -0.194925 -0.141898 -0.088871 -0.037816 -0.010733 0.015520 0.042042 0.068565 0.095087 0.124137 0.124137 0.124137
-4.326986 -4.293493 -4.293493 -4.595835 -4.566083 -4.534964 -4.502990 -4.471138 -4.439786 -4.408434 -4.377687 -4.347117 -4.316547 -4.285733 -4.224131 -4.162528 -4.100926 -4.039324 -3.977722 -3.916120 -3.855767 -3.797915 -3.740064 -3.682212 -3.624360 -3.566508 -3.508656 -3.450804 -3.393084 -3.337201 -3.282092 -3.226215 -3.170339 -3.114462 -3.058585 -3.002709 -2.946832 -2.891415 -2.837997 -2.784578 -2.731160 -2.677742 -2.627056 -2.576935 -2.526813 -2.477505 -2.430169 -2.382834 -2.335498 -2.288163 -2.240828 -2.192228 -2.143334 -2.096160 -2.056974 -2.019042 -1.981110 -1.943178 -1.905246 -1.867342 -1.829445 -1.791548 -1.753651 -1.715754 -1.541041 -1.132002 -0.721048 -0.304433 0.112182 0.528797 0.945411 1.362026 1.778641 2.000000 2.000000 2.000000 2.000000 2.000000 2.000000 2.000000 2.000000 2.000000 2.000000 2.000000 2.000000 2.000000 2.000000 2.000000 2.000000 2.000000 2.000000 2.000000 2.000000 2.000000 2.000000 2.000000 2.000000 2.000000 2.000000 1.984836 1.794632 1.604428 1.414223 1.219865 1.007310 0.822410 1.017544 1.212678 1.407812 1.602946 1.697417 1.735037 1.579962 1.424888 1.269813 1.114738 0.981276 0.928840 0.943096 0.957352 0.971609 0.985865 1.000242 0.826293 0.615128 0.403963 0.192799 -0.018366 -0.210537 -0.362036 -0.529742 -0.697450 -0.865157 -1.032865 -1.117125 -1.159844 -1.202562 -1.212449 -1.177837 -1.143226 -1.060968 -0.955512 -0.850056 -0.950253 -1.065590 -1.180927 -1.276294 -1.283403 -1.290512 -1.205030 -1.102670 -1.000310 -0.897950 -0.836590 -0.854095 -0.866879 -0.872364 -0.877849 -0.883334 -0.888819 -0.900164 -0.923311 -0.949907 -0.976971 -1.004034 -1.031098 -1.058161 -1.082466 -1.102293 -1.123075 -1.143856 -1.164637 -1.185418 -1.204393 -1.220619 -1.233260 -1.245901 -1.258543 -1.271184 -1.283774 -1.295940 -1.306291 -1.315824 -1.325358 -1.334891 -1.342836 -1.350210 -1.357585 -1.366500 -1.375527 -1.382894 -1.388477 -1.394060 -1.399643 -1.405585 -1.412977 -1.417416 -1.421713 -1.424402 -1.427092 -1.428700 -1.427057 -1.426315 -1.425573 -1.424830 -1.422263 -1.415972 -1.409681 -1.402725 -1.394149 -1.381797 -1.366774 -1.351751 -1.336727 -1.322907 -1.298562 -1.271151 -1.243739 -1.216327 -1.183034 -1.149428 -1.110378 -1.060285 -1.010192 -0.960099 -0.913901 -0.867730 -0.812438 -0.750851 -0.689263 -0.627675 -0.565910 -0.501589 -0.439915 -0.384136 -0.328357 -0.272578 -0.217229 -0.164202 -0.111175 -0.062634 -0.028590 0.004086 0.028556 0.053026 0.077496 0.101965 0.124137 0.124137 0.124137
-4.326986 -4.326986 -4.326986 -4.590317 -4.560665 -4.529567 -4.497640 -4.465716 -4.434364 -4.403013 -4.372135 -4.341565 -4.310995 -4.269375 -4.207773 -4.146171 -4.084569 -4.022967 -3.961365 -3.899762 -3.838160 -3.776558 -3.718534 -3.660683 -3.602831 -3.544979 -3.487127 -3.429275 -3.371816 -3.314692 -3.257792 -3.203181 -3.148571 -3.093960 -3.039138 -2.983262 -2.927385 -2.871508 -2.815632 -2.761701 -2.708283 -2.655345 -2.605223 -2.555101 -2.504980 -2.454858 -2.404736 -2.357144 -2.309808 -2.262473 -2.215138 -2.167802 -2.120467 -2.074460 -2.037629 -1.999825 -1.961928 -1.924031 -1.886134 -1.848237 -1.810340 -1.772443 -1.734546 -1.696649 -1.442960 -1.033921 -0.624881 -0.215842 0.193197 0.606834 1.023449 1.440064 1.856679 2.000000 2.000000 2.000000 2.000000 2.000000 2.000000 2.000000 2.000000 2.000000 2.000000 2.000000 2.000000 2.000000 2.000000 2.000000 2.000000 2.000000 2.000000 2.000000 2.000000 2.000000 2.000000 2.000000 2.000000 2.000000 2.000000 1.968930 1.778726 1.588522 1.398317 1.208113 1.017909 0.848132 1.043266 1.238400 1.433533 1.628667 1.823801 1.947106 1.792032 1.635315 1.472860 1.310405 1.147949 1.071599 1.114000 1.142439 1.170877 1.199316 1.227754 0.994722 0.683821 0.472656 0.261491 0.050327 -0.148218 -0.299717 -0.451216 -0.607241 -0.774949 -0.942657 -1.042318 -1.085037 -1.089311 -1.054699 -1.020087 -0.985476 -0.913423 -0.836985 -0.952322 -1.067659 -1.182996 -1.298333 -1.412757 -1.408803 -1.306443 -1.204083 -1.101723 -0.999363 -0.897003 -0.810285 -0.820327 -0.825812 -0.831297 -0.836782 -0.842267 -0.847751 -0.854792 -0.881428 -0.907124 -0.932821 -0.958517 -0.984214 -1.009911 -1.037086 -1.055789 -1.074492 -1.093195 -1.111898 -1.130600 -1.150335 -1.169314 -1.181955 -1.194596 -1.207237 -1.219865 -1.232031 -1.244197 -1.255398 -1.264931 -1.274464 -1.282744 -1.290119 -1.297493 -1.304868 -1.313208 -1.321296 -1.326879 -1.332462 -1.338045 -1.343456 -1.347066 -1.349186 -1.351875 -1.354565 -1.357255 -1.359944 -1.358181 -1.356327 -1.355343 -1.354601 -1.353821 -1.347530 -1.341239 -1.334948 -1.328657 -1.319280 -1.304257 -1.290386 -1.276927 -1.263467 -1.246093 -1.225324 -1.197912 -1.170501 -1.140508 -1.106902 -1.073295 -1.039689 -0.992027 -0.944622 -0.898450 -0.852279 -0.806107 -0.758508 -0.696920 -0.635333 -0.573745 -0.512157 -0.461540 -0.408369 -0.354017 -0.299159 -0.243380 -0.187601 -0.133479 -0.087453 -0.053409 -0.019365 0.014679 0.043376 0.067845 0.092315 0.115230 0.124137 0.124137 0.124137
-4.326986 -4.326986 -4.326986 -4.584798 -4.555247 -4.524149 -4.492290 -4.460316 -4.428943 -4.397591 -4.366584 -4.336013 -4.305443 -4.251205 -4.190140 -4.129813 -4.068211 -4.006609 -3.945007 -3.883405 -3.821803 -3.760201 -3.698599 -3.639153 -3.581302 -3.523450 -3.465598 -3.407746 -3.350547 -3.293424 -3.236301 -3.179178 -3.123772 -3.069162 -3.014551 -2.959941 -2.905330 -2.850720 -2.796109 -2.740308 -2.685406 -2.633512 -2.583390 -2.533268 -2.483146 -2.433024 -2.382903 -2.332781 -2.284118 -2.236783 -2.189448 -2.142112 -2.094777 -2.051480 -2.014649 -1.977819 -1.940988 -1.904157 -1.867029 -1.829132 -1.791235 -1.753338 -1.715441 -1.677544 -1.344879 -0.935839 -0.526800 -0.117761 0.291278 0.700317 1.109356 1.518395 1.934716 2.000000 2.000000 2.000000 2.000000 2.000000 2.000000 2.000000 2.000000 2.000000 2.000000 2.000000 2.000000 2.000000 2.000000 2.000000 2.000000 2.000000 2.000000 2.000000 2.000000 2.000000 2.000000 2.000000 2.000000 2.000000 2.000000 1.965131 1.790931 1.602756 1.414581 1.226406 1.038231 0.889800 1.051368 1.244913 1.438457 1.632002 1.825546 1.991731 1.907904 1.761409 1.598953 1.436498 1.274043 1.180319 1.282292 1.369951 1.398389 1.426828 1.455266 1.254016 0.928231 0.602445 0.330184 0.119020 -0.085899 -0.237398 -0.388897 -0.540396 -0.691895 -0.852449 -0.967511 -0.966172 -0.931561 -0.896949 -0.862337 -0.827726 -0.839054 -0.949204 -1.057608 -1.166011 -1.274414 -1.382818 -1.485078 -1.415262 -1.313655 -1.212048 -1.110440 -1.008833 -0.907226 -0.820572 -0.821699 -0.829847 -0.837995 -0.846143 -0.854291 -0.849124 -0.804937 -0.820034 -0.845731 -0.871427 -0.897124 -0.922821 -0.950999 -0.979813 -1.000699 -1.019402 -1.038105 -1.056808 -1.076581 -1.096791 -1.117001 -1.130649 -1.143290 -1.155931 -1.168122 -1.180289 -1.192455 -1.204505 -1.214038 -1.222653 -1.230027 -1.237402 -1.244776 -1.252151 -1.259699 -1.264389 -1.268229 -1.272070 -1.275910 -1.279750 -1.280743 -1.282038 -1.284728 -1.287417 -1.290107 -1.289516 -1.287662 -1.285808 -1.284371 -1.283629 -1.279088 -1.272797 -1.266506 -1.260216 -1.254648 -1.244049 -1.230590 -1.217131 -1.203671 -1.188885 -1.169279 -1.149673 -1.124674 -1.097262 -1.064376 -1.030769 -0.997163 -0.965921 -0.929888 -0.883136 -0.836827 -0.790656 -0.744484 -0.698313 -0.642990 -0.581402 -0.523611 -0.473721 -0.423832 -0.373014 -0.318661 -0.264308 -0.209956 -0.155603 -0.110098 -0.078228 -0.044184 -0.010140 0.023905 0.057949 0.082665 0.104719 0.118968 0.124137 0.124137 0.124137
-4.326986 -4.326986 -4.326986 -4.579280 -4.549829 -4.518731 -4.486941 -4.454966 -4.423521 -4.392169 -4.361032 -4.330462 -4.296609 -4.233239 -4.169869 -4.107586 -4.047429 -3.987272 -3.927115 -3.866957 -3.805445 -3.743843 -3.682241 -3.620639 -3.559772 -3.501921 -3.444069 -3.386402 -3.329279 -3.272156 -3.215033 -3.157909 -3.100786 -3.044363 -2.989753 -2.935142 -2.880532 -2.825921 -2.771311 -2.716700 -2.662090 -2.609254 -2.560875 -2.511435 -2.461313 -2.411191 -2.361069 -2.310948 -2.260826 -2.211093 -2.163757 -2.116422 -2.069087 -2.028500 -1.991670 -1.954839 -1.918008 -1.881178 -1.844347 -1.807516 -1.770685 -1.733855 -1.696336 -1.655836 -1.246797 -0.837758 -0.428719 -0.020394 0.386309 0.793012 1.199715 1.606419 2.000000 2.000000 2.000000 2.000000 2.000000 2.000000 2.000000 2.000000 2.000000 2.000000 2.000000 2.000000 2.000000 2.000000 2.000000 2.000000 2.000000 2.000000 2.000000 2.000000 2.000000 2.000000 2.000000 2.000000 2.000000 2.000000 2.000000 1.954184 1.811608 1.659546 1.471371 1.283196 1.095021 0.955431 1.103292 1.251154 1.433868 1.627412 1.820957 1.993719 1.909892 1.826065 1.725047 1.562591 1.400136 1.289039 1.391012 1.492985 1.594959 1.654340 1.682778 1.513310 1.187525 0.861739 0.535954 0.210168 -0.023452 -0.175079 -0.326578 -0.478077 -0.627432 -0.772572 -0.866354 -0.839832 -0.813309 -0.786787 -0.760264 -0.770254 -0.847377 -0.955781 -1.064184 -1.172587 -1.280991 -1.379776 -1.469650 -1.432704 -1.331097 -1.229490 -1.127882 -1.028540 -0.944111 -0.859682 -0.841975 -0.850123 -0.858271 -0.866419 -0.848408 -0.804220 -0.760033 -0.758641 -0.784337 -0.810034 -0.835730 -0.864402 -0.893216 -0.922031 -0.945609 -0.964312 -0.983015 -1.002827 -1.023037 -1.043247 -1.063457 -1.079344 -1.091985 -1.104214 -1.116380 -1.128546 -1.140712 -1.152878 -1.162561 -1.169936 -1.176240 -1.181797 -1.187355 -1.192913 -1.196853 -1.200684 -1.204524 -1.208364 -1.212205 -1.213908 -1.214420 -1.214932 -1.217580 -1.220270 -1.220852 -1.218997 -1.217143 -1.215289 -1.213434 -1.210646 -1.204355 -1.199083 -1.193903 -1.188723 -1.181165 -1.170754 -1.157335 -1.143875 -1.130416 -1.112070 -1.092464 -1.072858 -1.051436 -1.021850 -0.988243 -0.957617 -0.928013 -0.898409 -0.868806 -0.823816 -0.777063 -0.730311 -0.683559 -0.636807 -0.589059 -0.535792 -0.485902 -0.436013 -0.386123 -0.336233 -0.283305 -0.228953 -0.174600 -0.132513 -0.094396 -0.059312 -0.027446 0.004420 0.036287 0.068153 0.094207 0.108457 0.122706 0.124137 0.124137 0.124137
