-0.850835 -0.856165 -0.861495 -0.866824 -0.872154 -0.876543 -0.871411 -0.866746 -0.863561 -0.860376 -0.857191 -0.854006 -0.850821 -0.847636 -0.844451 -0.841265 -0.838080 -0.834895 -0.831710 -0.836373 -0.862934 -0.889495 -0.888959 -0.881171 -0.873384 -0.865596 -0.857808 -0.850020 -0.842232 -0.834444 -0.826656 -0.843062 -0.877480 -0.911898 -0.946316 -0.980734 -1.000000 -1.000000 -1.000000 -1.000000 -1.000000 -1.000000 -1.000000 -1.000000 -1.000000 -1.000000 -1.000000 -1.000000 -1.000000 -1.000000 -1.000000 -1.000000 -1.000000 -1.000000 -1.000000 -1.000000 -1.000000 -1.000000 -1.000000 -1.000000 -1.000000 -1.000000 -1.000000 -1.027395 -1.057263 -1.087130 -1.100571 -1.091517 -1.082463 -1.073409 -1.064355 -1.055301 -1.046247 -1.081484 -1.124029 -1.166573 -1.209117 -1.251662 -1.294206 -1.336751 -1.379295 -1.433474 -1.500000 -1.500000 -1.500000 -1.500000 -1.500000 -1.500000 -1.500000 -1.500000 -1.500000 -1.500000 -1.500000 -1.500000 -1.500000 -1.500000 -1.500000 -1.500000 -1.500000 -1.500000 -1.500000 -1.500000 -1.500000 -1.500000 -1.500000 -1.500000 -1.500000 -1.500000 -1.500000 -1.500000 -1.500000 -1.500000 -1.500000 -1.500000 -1.500000 -1.500000 -1.500000 -1.500000 -1.500000 -1.500000 -1.500000 -1.500000 -1.511066 -1.553717 -1.596368 -1.639139 -1.681924 -1.724708 -1.767493 -1.810278 -1.853063 -1.895848 -1.938633 -1.981418 -2.000000 -2.000000 -2.000000 -2.000000 -2.000000 -2.000000 -2.000000 -2.000000 -2.000000 -2.000000 -2.000000 -2.000000 -1.968918 -1.876951 -1.784985 -1.693019 -1.601053 -1.509087 -1.417121 -1.325155 -1.233188 -1.141222 -1.049256 -0.957290 -0.866334 -0.868362 -0.879794 -0.891226 -0.902659 -0.914091 -0.925523 -0.936956 -0.948388 -0.959820 -0.970937 -0.981276 -0.991614 -1.000866 -1.008224 -1.015582 -1.022940 -1.030299 -1.037657 -1.045015 -1.052514 -1.060178 -1.067842 -1.075506 -1.083171 -1.090835 -1.096075 -1.101038 -1.106000 -1.110963 -1.116896 -1.123353 -1.129810 -1.136266 -1.142723 -1.149179 -1.155636 -1.162092 -1.167845 -1.172956 -1.180032 -1.187517 -1.195002 -1.202486 -1.209971 -1.217456 -1.224549 -1.230928 -1.237306 -1.243792 -1.253219 -1.262390 -1.271561 -1.280732 -1.289902 -1.299073 -1.308244 -1.317415 -1.326586 -1.337062 -1.349485 -1.361909 -1.374332 -1.387063 -1.399870 -1.412676 -1.425483 -1.438289 -1.451096 -1.466741 -1.482484 -1.498226 -1.513968 -1.529711 -1.545453 -1.561584 -1.578132 -1.594681 -1.612790 -1.631558 -1.650326 -1.669094 -1.687862 -1.706630 -1.725398 -1.744166 -1.761161 -1.778758 -1.797496 -1.816234 -1.834972 -1.853710 -1.872448 -1.891186 -1.909924 -1.928706 -1.948170 -1.967635 -1.987099 -2.006816 -2.027691 -2.048565 -2.069439 -2.090313 -2.110613 -2.130793 -2.150974 -2.171155 -2.191335 -2.211516 -2.231697 -2.253292 -2.273469 -2.287981 -2.301749 -2.315517 -2.329285 -2.343053 -2.356821 -2.370589 -2.384356 -2.398124 -2.408404 -2.417539 -2.426674 -2.435809 -2.444944 -2.454079 -2.463214 -2.472349 -2.481484 -2.480533 -2.470445 -2.457415 -2.445627 -2.434508 -2.423390 -2.412271 -2.401153 -2.390035 -2.378916 -2.364231 -2.342373 -2.320516 -2.296870 -2.261061 -2.225253 -2.189444 -2.153636
-0.601957 -0.607287 -0.612616 -0.617946 -0.623276 -0.625522 -0.620390 -0.615258 -0.610126 -0.604995 -0.599863 -0.596065 -0.592880 -0.589695 -0.586509 -0.583324 -0.580139 -0.576954 -0.573769 -0.583263 -0.609824 -0.636385 -0.662945 -0.689506 -0.716067 -0.735159 -0.727371 -0.719583 -0.711796 -0.704008 -0.696220 -0.717677 -0.752095 -0.786514 -0.820932 -0.855350 -0.889768 -0.924186 -0.958604 -0.993022 -1.000000 -1.000000 -1.000000 -1.000000 -1.000000 -1.000000 -1.000000 -1.000000 -1.000000 -1.000000 -1.000000 -1.000000 -1.000000 -1.000000 -1.000000 -1.000000 -1.000000 -1.000000 -1.000000 -1.000000 -1.000000 -1.000000 -1.000000 -1.029677 -1.059545 -1.089413 -1.119281 -1.149148 -1.179016 -1.208884 -1.199866 -1.190812 -1.181758 -1.221340 -1.263884 -1.306428 -1.348973 -1.391517 -1.422976 -1.443645 -1.464314 -1.484983 -1.500000 -1.500000 -1.500000 -1.500000 -1.500000 -1.500000 -1.500000 -1.500000 -1.500000 -1.500000 -1.500000 -1.500000 -1.500000 -1.500000 -1.500000 -1.500000 -1.500000 -1.500000 -1.500000 -1.500000 -1.500000 -1.500000 -1.500000 -1.500000 -1.500000 -1.500000 -1.500000 -1.500000 -1.500000 -1.500000 -1.500000 -1.500000 -1.500000 -1.500000 -1.500000 -1.500000 -1.500000 -1.500000 -1.500000 -1.500000 -1.504922 -1.547573 -1.590224 -1.632876 -1.675527 -1.718221 -1.761006 -1.803791 -1.846575 -1.889360 -1.932145 -1.974930 -2.000000 -2.000000 -2.000000 -2.000000 -2.000000 -2.000000 -2.000000 -2.000000 -2.000000 -2.000000 -2.000000 -2.000000 -1.982384 -1.890418 -1.798452 -1.706486 -1.614520 -1.522554 -1.430742 -1.339045 -1.247348 -1.155651 -1.063954 -0.975846 -0.899908 -0.887320 -0.898752 -0.910184 -0.921617 -0.933049 -0.944481 -0.955913 -0.967346 -0.978307 -0.988646 -0.998984 -1.009323 -1.019100 -1.026458 -1.033816 -1.041174 -1.048533 -1.055891 -1.063421 -1.071085 -1.078749 -1.086413 -1.094077 -1.101742 -1.109406 -1.115164 -1.120127 -1.125089 -1.131081 -1.137537 -1.143994 -1.150450 -1.156907 -1.163363 -1.169820 -1.176276 -1.182733 -1.188781 -1.195772 -1.203257 -1.209814 -1.216192 -1.222570 -1.228948 -1.235326 -1.241704 -1.248082 -1.254461 -1.263731 -1.273209 -1.282422 -1.291593 -1.300764 -1.309935 -1.319105 -1.328276 -1.337447 -1.347395 -1.359818 -1.372242 -1.384665 -1.397089 -1.409694 -1.422500 -1.435307 -1.448113 -1.460920 -1.475888 -1.491631 -1.507373 -1.523115 -1.538858 -1.554600 -1.570343 -1.586178 -1.602726 -1.620142 -1.638910 -1.657678 -1.676446 -1.695214 -1.712907 -1.729260 -1.745612 -1.761965 -1.778849 -1.796902 -1.815514 -1.834252 -1.852990 -1.871728 -1.890466 -1.909204 -1.927942 -1.947153 -1.966617 -1.986082 -2.005546 -2.025011 -2.045495 -2.066370 -2.087244 -2.107893 -2.128074 -2.148255 -2.168435 -2.188616 -2.208797 -2.228977 -2.248812 -2.263644 -2.276545 -2.290313 -2.304081 -2.317849 -2.331617 -2.345384 -2.359152 -2.372920 -2.386688 -2.400456 -2.412970 -2.422105 -2.431240 -2.440375 -2.449510 -2.458645 -2.467780 -2.472027 -2.469000 -2.465972 -2.460685 -2.447655 -2.434626 -2.421596 -2.408567 -2.395537 -2.383294 -2.372175 -2.361057 -2.349939 -2.329552 -2.303379 -2.267571 -2.231762 -2.195954 -2.160146 -2.124337
-0.353079 -0.358409 -0.363738 -0.369068 -0.374398 -0.374501 -0.369369 -0.364237 -0.359105 -0.353974 -0.348842 -0.343710 -0.338578 -0.333446 -0.328568 -0.325383 -0.322198 -0.319013 -0.315828 -0.330153 -0.356714 -0.383274 -0.409835 -0.436396 -0.462957 -0.489517 -0.516078 -0.542639 -0.569199 -0.573571 -0.565783 -0.592293 -0.626711 -0.661129 -0.695547 -0.729966 -0.766271 -0.804396 -0.842521 -0.880647 -0.918772 -0.956232 -0.980419 -1.000000 -1.000000 -1.000000 -1.000000 -1.000000 -1.000000 -1.000000 -1.000000 -1.000000 -1.000000 -1.000000 -1.000000 -1.000000 -1.000000 -1.000000 -1.000000 -1.000000 -1.000000 -1.000000 -1.002092 -1.031960 -1.061827 -1.091695 -1.121563 -1.151431 -1.181298 -1.211166 -1.241034 -1.270902 -1.298026 -1.321201 -1.341870 -1.362539 -1.383208 -1.403877 -1.424547 -1.445216 -1.465885 -1.486554 -1.500000 -1.500000 -1.500000 -1.500000 -1.500000 -1.500000 -1.500000 -1.500000 -1.500000 -1.500000 -1.500000 -1.500000 -1.500000 -1.500000 -1.500000 -1.500000 -1.500000 -1.500000 -1.500000 -1.500000 -1.500000 -1.500000 -1.500000 -1.500000 -1.500000 -1.500000 -1.500000 -1.500000 -1.500000 -1.500000 -1.500000 -1.500000 -1.500000 -1.500000 -1.500000 -1.500000 -1.500000 -1.500000 -1.500000 -1.500000 -1.500000 -1.541429 -1.584080 -1.626732 -1.669383 -1.712034 -1.754686 -1.797337 -1.840088 -1.882873 -1.925658 -1.968442 -2.000000 -2.000000 -2.000000 -2.000000 -2.000000 -2.000000 -2.000000 -2.000000 -2.000000 -2.000000 -2.000000 -2.000000 -1.995991 -1.904294 -1.812597 -1.720900 -1.629204 -1.537507 -1.445810 -1.354113 -1.262416 -1.170719 -1.085357 -1.009420 -0.933483 -0.906278 -0.917710 -0.929142 -0.940574 -0.952007 -0.963439 -0.974871 -0.985677 -0.996016 -1.006354 -1.016693 -1.027031 -1.037334 -1.044692 -1.052050 -1.059408 -1.066767 -1.074327 -1.081992 -1.089656 -1.097320 -1.104984 -1.112649 -1.120313 -1.127977 -1.134253 -1.139216 -1.145265 -1.151721 -1.158178 -1.164634 -1.171091 -1.177547 -1.184004 -1.189831 -1.195221 -1.200610 -1.207834 -1.214212 -1.220591 -1.226969 -1.233347 -1.239725 -1.246103 -1.252481 -1.258859 -1.265237 -1.274192 -1.283671 -1.293149 -1.302454 -1.311625 -1.320796 -1.329967 -1.339138 -1.348308 -1.357728 -1.370152 -1.382575 -1.394998 -1.407422 -1.419845 -1.432324 -1.445131 -1.457937 -1.470744 -1.485035 -1.500778 -1.516520 -1.532262 -1.548005 -1.563747 -1.579490 -1.595232 -1.610975 -1.627493 -1.646261 -1.664653 -1.681005 -1.697358 -1.713710 -1.730063 -1.746415 -1.762768 -1.779120 -1.797156 -1.815210 -1.833532 -1.852270 -1.871008 -1.889746 -1.908484 -1.927222 -1.946136 -1.965600 -1.985065 -2.004529 -2.023993 -2.043458 -2.063300 -2.084174 -2.105049 -2.125355 -2.145536 -2.165716 -2.185897 -2.206078 -2.223526 -2.239133 -2.254740 -2.268999 -2.282249 -2.294990 -2.307731 -2.320472 -2.333948 -2.347716 -2.361484 -2.375252 -2.389020 -2.402788 -2.416556 -2.426671 -2.435806 -2.444941 -2.454076 -2.463211 -2.460494 -2.457466 -2.454439 -2.451411 -2.448383 -2.437895 -2.424866 -2.411836 -2.398807 -2.385777 -2.372748 -2.359718 -2.346689 -2.333659 -2.309889 -2.274080 -2.238272 -2.202464 -2.166655 -2.130847 -2.095038
-0.280078 -0.211966 -0.143853 -0.120190 -0.125519 -0.123480 -0.118348 -0.113216 -0.108085 -0.102953 -0.097821 -0.092689 -0.087557 -0.082425 -0.077294 -0.072162 -0.067030 -0.061898 -0.057887 -0.077043 -0.103603 -0.130164 -0.157086 -0.186180 -0.215273 -0.244367 -0.273461 -0.302555 -0.331648 -0.360742 -0.389836 -0.458919 -0.528414 -0.566540 -0.604665 -0.642791 -0.680916 -0.719042 -0.757167 -0.795293 -0.833418 -0.869834 -0.894022 -0.918209 -0.942397 -0.966584 -0.990772 -1.000000 -1.000000 -1.000000 -1.000000 -1.000000 -1.000000 -1.000000 -1.000000 -1.000000 -1.000000 -1.000000 -1.000000 -1.000000 -1.000000 -1.000000 -1.004374 -1.034242 -1.062862 -1.089889 -1.116917 -1.143945 -1.170972 -1.198000 -1.225027 -1.252055 -1.279194 -1.307151 -1.335108 -1.363065 -1.384779 -1.405448 -1.426117 -1.446787 -1.467456 -1.488125 -1.500000 -1.500000 -1.500000 -1.500000 -1.500000 -1.500000 -1.500000 -1.500000 -1.500000 -1.500000 -1.500000 -1.500000 -1.500000 -1.500000 -1.500000 -1.500000 -1.500000 -1.500000 -1.500000 -1.500000 -1.500000 -1.500000 -1.500000 -1.500000 -1.500000 -1.500000 -1.500000 -1.500000 -1.500000 -1.500000 -1.500000 -1.500000 -1.500000 -1.500000 -1.500000 -1.500000 -1.500000 -1.500000 -1.500000 -1.500000 -1.500000 -1.535285 -1.577937 -1.620588 -1.663239 -1.705890 -1.748542 -1.791193 -1.833844 -1.876496 -1.919170 -1.961955 -2.000000 -2.000000 -2.000000 -2.000000 -2.000000 -2.000000 -2.000000 -2.000000 -2.000000 -2.000000 -2.000000 -2.000000 -2.000000 -1.919362 -1.827665 -1.735968 -1.644271 -1.552575 -1.460878 -1.369181 -1.277484 -1.194869 -1.118931 -1.042994 -0.967057 -0.925235 -0.936668 -0.948100 -0.959532 -0.970964 -0.982397 -0.993047 -1.003386 -1.013724 -1.024063 -1.034401 -1.044739 -1.055078 -1.062926 -1.070284 -1.077643 -1.085234 -1.092899 -1.100563 -1.108227 -1.115891 -1.123556 -1.131220 -1.138884 -1.146548 -1.153342 -1.159449 -1.165905 -1.171782 -1.177171 -1.182561 -1.187950 -1.193340 -1.198729 -1.204118 -1.209508 -1.216692 -1.224632 -1.231367 -1.237745 -1.244124 -1.250502 -1.256880 -1.263258 -1.269636 -1.276014 -1.284654 -1.294132 -1.303610 -1.313088 -1.322486 -1.331657 -1.340828 -1.349999 -1.359170 -1.368341 -1.380485 -1.392908 -1.405332 -1.417755 -1.430179 -1.442602 -1.455025 -1.467761 -1.480568 -1.494182 -1.509925 -1.525667 -1.541410 -1.557152 -1.572894 -1.588637 -1.604379 -1.619937 -1.633513 -1.649104 -1.665456 -1.681809 -1.698161 -1.714513 -1.730866 -1.747218 -1.763571 -1.779923 -1.797410 -1.815464 -1.833517 -1.851571 -1.870288 -1.889026 -1.907764 -1.926502 -1.945240 -1.964583 -1.984047 -2.003512 -2.022976 -2.042440 -2.061905 -2.081369 -2.101979 -2.122636 -2.142816 -2.162997 -2.182633 -2.198240 -2.213847 -2.229454 -2.245061 -2.260081 -2.274203 -2.288112 -2.300853 -2.313594 -2.326335 -2.339076 -2.351817 -2.364558 -2.377584 -2.391352 -2.405120 -2.418888 -2.431236 -2.440371 -2.449506 -2.451988 -2.448961 -2.445933 -2.442905 -2.439878 -2.436850 -2.433822 -2.428136 -2.415106 -2.402076 -2.389047 -2.376017 -2.362988 -2.349958 -2.336929 -2.313298 -2.286459 -2.250008 -2.212567 -2.175125 -2.137684 -2.101548 -2.065740
-0.209409 -0.143878 -0.078347 -0.012816 0.052714 0.057294 0.056496 0.058682 0.060867 0.063052 0.065238 0.067423 0.069608 0.071793 0.073979 0.076164 0.078349 0.080535 0.082720 0.083336 0.083816 0.083495 0.054401 0.025307 -0.003787 -0.032880 -0.061974 -0.091068 -0.120162 -0.149255 -0.180259 -0.252363 -0.324466 -0.396569 -0.468672 -0.540775 -0.595562 -0.633687 -0.671813 -0.709938 -0.748064 -0.783437 -0.807624 -0.831812 -0.855999 -0.880187 -0.904374 -0.928562 -0.952749 -0.976937 -1.000000 -1.000000 -1.000000 -1.000000 -1.000000 -1.000000 -1.000000 -1.000000 -1.000000 -1.000000 -1.000000 -1.000000 -1.004563 -1.024580 -1.044596 -1.070972 -1.098000 -1.125027 -1.152055 -1.179082 -1.206110 -1.233137 -1.260362 -1.288320 -1.316277 -1.344234 -1.372191 -1.400148 -1.427688 -1.448357 -1.469027 -1.489696 -1.500000 -1.500000 -1.500000 -1.500000 -1.500000 -1.500000 -1.500000 -1.500000 -1.500000 -1.500000 -1.500000 -1.500000 -1.500000 -1.500000 -1.500000 -1.500000 -1.500000 -1.500000 -1.500000 -1.500000 -1.500000 -1.500000 -1.500000 -1.500000 -1.500000 -1.500000 -1.500000 -1.500000 -1.500000 -1.500000 -1.500000 -1.500000 -1.500000 -1.500000 -1.500000 -1.500000 -1.500000 -1.500000 -1.500000 -1.500000 -1.500000 -1.529141 -1.571793 -1.614444 -1.657095 -1.699747 -1.742398 -1.785049 -1.827701 -1.870352 -1.913003 -1.955654 -1.998222 -2.000000 -2.000000 -2.000000 -2.000000 -2.000000 -2.000000 -2.000000 -2.000000 -2.000000 -2.000000 -2.000000 -2.000000 -1.934430 -1.842733 -1.751036 -1.659339 -1.567642 -1.475945 -1.384249 -1.304380 -1.228443 -1.152506 -1.076568 -1.000631 -0.944193 -0.955625 -0.967058 -0.978490 -0.989922 -1.000417 -1.010755 -1.021094 -1.031432 -1.041771 -1.052109 -1.062448 -1.072786 -1.081160 -1.088518 -1.096141 -1.103806 -1.111470 -1.119134 -1.126798 -1.134463 -1.142127 -1.149100 -1.155706 -1.162312 -1.169901 -1.175290 -1.180680 -1.186069 -1.191458 -1.196848 -1.202237 -1.207627 -1.213016 -1.218406 -1.225470 -1.233411 -1.241351 -1.248522 -1.254900 -1.261278 -1.267657 -1.274035 -1.280413 -1.286791 -1.295115 -1.304593 -1.314071 -1.323549 -1.333028 -1.342506 -1.351689 -1.360860 -1.370031 -1.379202 -1.390818 -1.403241 -1.415665 -1.428088 -1.440512 -1.452935 -1.465359 -1.477782 -1.490392 -1.503329 -1.519072 -1.534814 -1.550557 -1.566299 -1.581182 -1.594758 -1.608334 -1.621910 -1.635486 -1.650326 -1.666264 -1.682612 -1.698964 -1.715316 -1.731669 -1.748021 -1.764374 -1.780726 -1.797664 -1.815718 -1.833771 -1.851825 -1.869878 -1.888306 -1.907044 -1.925782 -1.944520 -1.963565 -1.983030 -2.002494 -2.021959 -2.041423 -2.060888 -2.080352 -2.099816 -2.119784 -2.140097 -2.157347 -2.172954 -2.188561 -2.204168 -2.219775 -2.235381 -2.250988 -2.265286 -2.279407 -2.293529 -2.306717 -2.319458 -2.332199 -2.344940 -2.357681 -2.370422 -2.383163 -2.395904 -2.408645 -2.421386 -2.434987 -2.443483 -2.440455 -2.437427 -2.434400 -2.431372 -2.428344 -2.425317 -2.422289 -2.419261 -2.416234 -2.405346 -2.392317 -2.379287 -2.366257 -2.353228 -2.339652 -2.312813 -2.285974 -2.259135 -2.227840 -2.190399 -2.152957 -2.115516 -2.078075 -2.040633
-0.076647 -0.011116 0.054414 0.119945 0.176470 0.175479 0.174488 0.173497 0.172506 0.171515 0.172130 0.174316 0.176501 0.178686 0.180872 0.183057 0.185242 0.187427 0.189458 0.189938 0.190418 0.190897 0.191377 0.191857 0.192337 0.178606 0.149513 0.120419 0.091325 0.062231 0.026297 -0.045807 -0.117910 -0.190013 -0.262116 -0.334219 -0.406322 -0.478425 -0.550528 -0.622631 -0.662709 -0.697039 -0.721227 -0.745414 -0.769602 -0.793789 -0.819267 -0.845371 -0.871475 -0.897579 -0.923683 -0.949788 -0.973293 -0.995446 -1.000000 -1.000000 -1.000000 -1.000000 -1.000000 -1.000000 -1.000000 -1.000000 -1.006225 -1.026241 -1.046258 -1.066275 -1.086291 -1.106308 -1.133137 -1.160165 -1.187192 -1.214220 -1.241531 -1.269488 -1.297445 -1.325402 -1.353359 -1.381316 -1.409273 -1.437230 -1.465187 -1.491267 -1.500000 -1.500000 -1.500000 -1.500000 -1.500000 -1.500000 -1.500000 -1.500000 -1.500000 -1.500000 -1.500000 -1.500000 -1.500000 -1.500000 -1.500000 -1.500000 -1.500000 -1.500000 -1.500000 -1.500000 -1.500000 -1.500000 -1.500000 -1.500000 -1.500000 -1.500000 -1.500000 -1.500000 -1.500000 -1.500000 -1.500000 -1.500000 -1.500000 -1.500000 -1.500000 -1.500000 -1.500000 -1.500000 -1.500000 -1.500000 -1.500000 -1.522997 -1.565649 -1.608300 -1.650951 -1.693603 -1.736254 -1.778905 -1.821557 -1.864208 -1.906859 -1.949320 -1.991456 -2.000000 -2.000000 -2.000000 -2.000000 -2.000000 -2.000000 -2.000000 -2.000000 -2.000000 -2.000000 -2.000000 -2.000000 -1.949498 -1.857801 -1.766104 -1.674407 -1.582710 -1.491013 -1.413892 -1.337954 -1.262017 -1.186080 -1.110142 -1.034205 -0.963151 -0.974583 -0.986016 -0.997448 -1.007787 -1.018125 -1.028464 -1.038802 -1.049141 -1.059479 -1.069818 -1.080156 -1.090495 -1.099394 -1.107048 -1.114713 -1.121433 -1.128040 -1.134646 -1.141252 -1.147859 -1.154465 -1.161071 -1.167678 -1.175548 -1.183729 -1.189577 -1.194967 -1.200356 -1.205746 -1.211135 -1.216524 -1.221914 -1.227303 -1.234249 -1.242190 -1.250130 -1.258070 -1.265677 -1.272055 -1.278433 -1.284811 -1.291190 -1.297568 -1.305576 -1.315054 -1.324532 -1.334011 -1.343489 -1.352967 -1.362445 -1.371721 -1.380892 -1.390063 -1.401151 -1.413575 -1.425998 -1.438422 -1.450845 -1.463268 -1.475692 -1.488115 -1.500539 -1.513022 -1.528219 -1.542428 -1.556004 -1.569580 -1.583156 -1.596732 -1.610308 -1.623884 -1.637460 -1.651703 -1.667642 -1.683580 -1.699767 -1.716120 -1.732472 -1.748824 -1.765177 -1.781529 -1.797918 -1.815972 -1.834025 -1.852078 -1.870132 -1.888185 -1.906324 -1.925062 -1.943800 -1.962548 -1.982012 -2.001477 -2.020941 -2.040406 -2.059870 -2.079335 -2.098799 -2.116674 -2.132087 -2.147668 -2.163275 -2.178882 -2.194488 -2.210095 -2.225702 -2.241309 -2.256368 -2.270490 -2.284612 -2.298733 -2.312580 -2.325321 -2.338062 -2.350803 -2.363544 -2.376285 -2.389026 -2.401767 -2.414508 -2.427249 -2.431414 -2.432061 -2.427383 -2.422866 -2.419839 -2.416811 -2.413783 -2.410756 -2.407728 -2.404700 -2.401673 -2.395586 -2.382557 -2.369527 -2.356497 -2.339167 -2.312328 -2.285489 -2.258649 -2.231810 -2.204971 -2.168230 -2.130789 -2.093348 -2.055906 -2.018465
0.056114 0.121645 0.187176 0.252707 0.294654 0.293663 0.292673 0.291682 0.290691 0.289700 0.288709 0.287718 0.286727 0.285736 0.287764 0.289950 0.292135 0.294320 0.296060 0.296540 0.297019 0.297499 0.297979 0.298459 0.298938 0.299418 0.299898 0.300378 0.300857 0.273718 0.232853 0.160749 0.088646 0.016543 -0.055560 -0.128101 -0.201650 -0.275199 -0.348748 -0.422297 -0.495846 -0.566603 -0.632130 -0.673922 -0.700026 -0.726131 -0.752235 -0.778339 -0.804443 -0.830547 -0.856652 -0.882756 -0.905985 -0.928138 -0.950291 -0.972445 -0.994598 -1.000000 -1.000000 -1.000000 -1.000000 -1.000000 -1.007887 -1.027903 -1.047920 -1.067936 -1.087953 -1.107970 -1.127986 -1.148003 -1.168275 -1.195302 -1.222699 -1.250656 -1.278613 -1.306570 -1.333743 -1.359519 -1.385294 -1.411070 -1.436845 -1.462621 -1.482240 -1.498331 -1.500000 -1.500000 -1.500000 -1.500000 -1.500000 -1.500000 -1.500000 -1.500000 -1.500000 -1.500000 -1.500000 -1.500000 -1.500000 -1.500000 -1.500000 -1.500000 -1.500000 -1.500000 -1.500000 -1.500000 -1.500000 -1.500000 -1.500000 -1.500000 -1.500000 -1.500000 -1.500000 -1.500000 -1.500000 -1.500000 -1.500000 -1.500000 -1.500000 -1.500000 -1.500000 -1.500000 -1.500000 -1.500000 -1.500000 -1.516854 -1.559505 -1.602156 -1.644807 -1.687459 -1.730110 -1.772761 -1.815413 -1.858064 -1.900417 -1.942553 -1.984690 -2.000000 -2.000000 -2.000000 -2.000000 -2.000000 -2.000000 -2.000000 -2.000000 -2.000000 -2.000000 -2.000000 -2.000000 -1.964566 -1.872869 -1.781172 -1.689475 -1.599341 -1.523403 -1.447466 -1.371529 -1.295591 -1.219654 -1.143717 -1.067779 -0.991842 -0.993541 -1.004818 -1.015157 -1.025495 -1.035834 -1.046172 -1.056511 -1.066849 -1.076972 -1.086209 -1.095447 -1.104708 -1.113586 -1.120192 -1.126799 -1.133405 -1.140011 -1.146618 -1.153224 -1.159830 -1.166436 -1.173043 -1.180932 -1.189114 -1.197295 -1.203864 -1.209254 -1.214643 -1.220033 -1.225422 -1.230812 -1.236201 -1.243028 -1.250968 -1.258909 -1.266849 -1.274789 -1.282730 -1.289210 -1.295588 -1.301966 -1.308344 -1.316037 -1.325515 -1.334994 -1.344472 -1.353950 -1.363428 -1.372906 -1.382385 -1.391753 -1.400924 -1.411485 -1.423908 -1.436331 -1.448755 -1.461178 -1.473602 -1.486025 -1.497583 -1.508122 -1.518661 -1.530875 -1.544402 -1.557978 -1.571554 -1.585130 -1.598706 -1.612282 -1.625857 -1.639433 -1.653081 -1.669019 -1.684957 -1.700896 -1.716923 -1.733275 -1.749628 -1.765980 -1.782332 -1.798685 -1.816226 -1.834279 -1.852332 -1.870386 -1.888439 -1.906493 -1.924546 -1.943080 -1.961818 -1.980995 -2.000459 -2.019924 -2.039388 -2.058853 -2.076441 -2.091886 -2.107332 -2.122777 -2.138133 -2.153595 -2.169202 -2.184809 -2.200416 -2.216023 -2.231630 -2.247237 -2.261572 -2.275694 -2.289816 -2.303937 -2.318059 -2.331185 -2.343926 -2.356667 -2.369408 -2.382149 -2.394890 -2.407631 -2.412580 -2.415977 -2.419373 -2.422769 -2.419254 -2.414576 -2.409898 -2.405220 -2.400542 -2.396195 -2.393167 -2.390139 -2.387112 -2.384084 -2.372797 -2.359767 -2.338682 -2.311843 -2.285003 -2.258164 -2.231325 -2.204486 -2.177646 -2.146062 -2.108621 -2.071179 -2.033738 -1.996297
0.164474 0.254407 0.319938 0.385468 0.412839 0.411848 0.410857 0.409867 0.408876 0.407885 0.406894 0.405903 0.404912 0.403921 0.402930 0.401939 0.400948 0.401213 0.402662 0.403141 0.403621 0.404101 0.403186 0.401234 0.399282 0.397330 0.395377 0.393425 0.391473 0.389521 0.374525 0.339312 0.283087 0.209539 0.135990 0.062441 -0.011108 -0.084657 -0.158206 -0.231755 -0.305304 -0.375449 -0.440976 -0.506503 -0.572030 -0.637557 -0.685203 -0.711307 -0.737411 -0.763515 -0.789620 -0.815724 -0.838677 -0.860830 -0.882983 -0.905137 -0.927290 -0.949443 -0.971596 -0.993749 -1.000000 -1.000000 -1.009549 -1.029565 -1.049582 -1.069598 -1.089615 -1.109631 -1.128780 -1.146514 -1.164247 -1.181980 -1.199946 -1.221114 -1.246890 -1.272665 -1.298441 -1.324216 -1.349992 -1.375767 -1.401543 -1.427318 -1.446427 -1.462518 -1.478609 -1.494701 -1.500000 -1.500000 -1.500000 -1.500000 -1.500000 -1.500000 -1.500000 -1.500000 -1.500000 -1.500000 -1.500000 -1.500000 -1.500000 -1.500000 -1.500000 -1.500000 -1.500000 -1.500000 -1.500000 -1.500000 -1.500000 -1.500000 -1.500000 -1.500000 -1.500000 -1.500000 -1.500000 -1.500000 -1.500000 -1.500000 -1.500000 -1.500000 -1.500000 -1.500000 -1.500000 -1.500000 -1.500000 -1.510710 -1.553361 -1.596012 -1.638664 -1.681315 -1.723966 -1.766618 -1.809269 -1.851514 -1.893651 -1.935787 -1.977924 -2.000000 -2.000000 -2.000000 -2.000000 -2.000000 -2.000000 -2.000000 -2.000000 -2.000000 -2.000000 -2.000000 -2.000000 -1.979634 -1.887937 -1.796240 -1.708852 -1.632915 -1.556978 -1.481040 -1.405103 -1.329166 -1.253228 -1.177291 -1.101354 -1.025416 -1.012188 -1.022527 -1.032264 -1.041502 -1.050740 -1.059977 -1.069215 -1.078452 -1.087690 -1.096928 -1.106222 -1.115947 -1.125558 -1.132164 -1.138770 -1.145376 -1.151983 -1.158589 -1.165195 -1.171802 -1.178408 -1.186317 -1.194498 -1.202680 -1.210861 -1.218152 -1.223541 -1.228931 -1.234320 -1.239709 -1.245099 -1.251807 -1.259747 -1.267688 -1.275628 -1.283568 -1.291509 -1.299449 -1.306365 -1.312743 -1.319121 -1.326498 -1.335977 -1.345455 -1.354933 -1.364411 -1.373889 -1.383368 -1.392846 -1.402324 -1.411785 -1.421818 -1.434241 -1.446665 -1.458313 -1.468852 -1.479391 -1.489930 -1.500469 -1.511008 -1.521547 -1.533201 -1.546517 -1.559951 -1.573527 -1.587103 -1.600679 -1.614255 -1.627831 -1.641407 -1.654983 -1.670396 -1.686335 -1.702273 -1.718211 -1.734150 -1.750431 -1.766783 -1.783136 -1.799488 -1.816480 -1.834533 -1.852586 -1.870640 -1.888693 -1.906747 -1.924800 -1.942853 -1.961098 -1.979977 -1.999442 -2.018906 -2.036207 -2.051653 -2.067098 -2.082543 -2.097989 -2.113434 -2.128830 -2.144179 -2.159527 -2.175130 -2.190737 -2.206344 -2.221950 -2.237557 -2.252654 -2.266776 -2.280898 -2.295020 -2.309142 -2.323263 -2.337049 -2.349790 -2.362531 -2.375272 -2.388013 -2.393747 -2.397143 -2.400540 -2.403936 -2.407332 -2.410729 -2.411126 -2.406448 -2.401770 -2.397092 -2.392414 -2.387736 -2.383058 -2.378380 -2.373701 -2.369523 -2.363037 -2.338197 -2.311357 -2.284518 -2.257679 -2.230840 -2.204000 -2.177161 -2.150322 -2.123483 -2.086452 -2.049011 -2.011570 -1.974128
0.214078 0.317943 0.421807 0.525671 0.536931 0.534010 0.533424 0.532837 0.532250 0.531664 0.531077 0.530490 0.529904 0.529317 0.528730 0.528144 0.527557 0.526970 0.515106 0.496112 0.477118 0.475041 0.473089 0.471137 0.469185 0.467233 0.465280 0.463328 0.461376 0.459424 0.440382 0.405169 0.369956 0.334743 0.299530 0.252983 0.179434 0.105885 0.032336 -0.041213 -0.114762 -0.184294 -0.249821 -0.315348 -0.380875 -0.446402 -0.511929 -0.577456 -0.642984 -0.696483 -0.722588 -0.748692 -0.771369 -0.793522 -0.815675 -0.837829 -0.859982 -0.882135 -0.904288 -0.925354 -0.944440 -0.963525 -0.999870 -1.022195 -1.039928 -1.057661 -1.075394 -1.093128 -1.110861 -1.128594 -1.146327 -1.164061 -1.182060 -1.200277 -1.218495 -1.237363 -1.263138 -1.288914 -1.314689 -1.340465 -1.366240 -1.392016 -1.410613 -1.426705 -1.442796 -1.458887 -1.474979 -1.491070 -1.500000 -1.500000 -1.500000 -1.500000 -1.500000 -1.500000 -1.500000 -1.500000 -1.500000 -1.500000 -1.500000 -1.500000 -1.500000 -1.500000 -1.500000 -1.500000 -1.500000 -1.500000 -1.500000 -1.500000 -1.500000 -1.500000 -1.500000 -1.500000 -1.500000 -1.500000 -1.500000 -1.500000 -1.500000 -1.500000 -1.500000 -1.500000 -1.500000 -1.500000 -1.500000 -1.504566 -1.547217 -1.589868 -1.632520 -1.675171 -1.717822 -1.760474 -1.802612 -1.844748 -1.886885 -1.929021 -1.971158 -2.000000 -2.000000 -2.000000 -2.000000 -2.000000 -2.000000 -2.000000 -2.000000 -2.000000 -2.000000 -2.000000 -2.000000 -1.994702 -1.903005 -1.818364 -1.742426 -1.666489 -1.590552 -1.514614 -1.438677 -1.362705 -1.283924 -1.205142 -1.126360 -1.052087 -1.024508 -1.033745 -1.042983 -1.052220 -1.061458 -1.070696 -1.079933 -1.089171 -1.098409 -1.107737 -1.117461 -1.127186 -1.136911 -1.144135 -1.150742 -1.157348 -1.163954 -1.170561 -1.177167 -1.183773 -1.191701 -1.199883 -1.208064 -1.216245 -1.224427 -1.232439 -1.237828 -1.243218 -1.248607 -1.253997 -1.260586 -1.268526 -1.276467 -1.284407 -1.292347 -1.300287 -1.308228 -1.316168 -1.323520 -1.329898 -1.336960 -1.346438 -1.355916 -1.365394 -1.374872 -1.384351 -1.393829 -1.403307 -1.412785 -1.421355 -1.429535 -1.440121 -1.450660 -1.461199 -1.471738 -1.482277 -1.492816 -1.503355 -1.513895 -1.524434 -1.535527 -1.548843 -1.562159 -1.575501 -1.589077 -1.602653 -1.616229 -1.629805 -1.643381 -1.656957 -1.671774 -1.687712 -1.703650 -1.719589 -1.735527 -1.751465 -1.767586 -1.783939 -1.800291 -1.816734 -1.834787 -1.852840 -1.870894 -1.888947 -1.907001 -1.925054 -1.943107 -1.961161 -1.979214 -1.995973 -2.011419 -2.026864 -2.042310 -2.057755 -2.073201 -2.088646 -2.104092 -2.119527 -2.134876 -2.150225 -2.165573 -2.181057 -2.196664 -2.212271 -2.227878 -2.243485 -2.257858 -2.271980 -2.286102 -2.300224 -2.314346 -2.328467 -2.342589 -2.355653 -2.368394 -2.374914 -2.378310 -2.381706 -2.385103 -2.388499 -2.391895 -2.395292 -2.398688 -2.402084 -2.398319 -2.393641 -2.388963 -2.384285 -2.379607 -2.374929 -2.370251 -2.365573 -2.357592 -2.340762 -2.313904 -2.285412 -2.257194 -2.230354 -2.203515 -2.176676 -2.149837 -2.122997 -2.096158 -2.064284 -2.026843 -1.989401 -1.947215
0.412505 0.516369 0.620233 0.721509 0.708884 0.696259 0.683634 0.671010 0.662629 0.662042 0.661455 0.660869 0.660282 0.659696 0.659109 0.658522 0.657936 0.657349 0.642095 0.623101 0.604107 0.585113 0.566118 0.547124 0.539088 0.537136 0.535183 0.533231 0.531279 0.529327 0.506239 0.471026 0.435813 0.400600 0.365387 0.330174 0.294961 0.259748 0.222878 0.149329 0.075780 0.006861 -0.058666 -0.124194 -0.189721 -0.255248 -0.320775 -0.386302 -0.451829 -0.514508 -0.574975 -0.635441 -0.693805 -0.712890 -0.731976 -0.751061 -0.770146 -0.789231 -0.808317 -0.827402 -0.846487 -0.865573 -0.904232 -0.954263 -1.004294 -1.039742 -1.057475 -1.075208 -1.092941 -1.110675 -1.128408 -1.146141 -1.164175 -1.182392 -1.200609 -1.218827 -1.237044 -1.255261 -1.279387 -1.305163 -1.330938 -1.356714 -1.374800 -1.390892 -1.406983 -1.423074 -1.439165 -1.455257 -1.471348 -1.487439 -1.500000 -1.500000 -1.500000 -1.500000 -1.500000 -1.500000 -1.500000 -1.500000 -1.500000 -1.500000 -1.500000 -1.500000 -1.500000 -1.500000 -1.500000 -1.500000 -1.500000 -1.500000 -1.500000 -1.500000 -1.500000 -1.500000 -1.500000 -1.500000 -1.500000 -1.500000 -1.500000 -1.500000 -1.500000 -1.500000 -1.500000 -1.500000 -1.500000 -1.500000 -1.541073 -1.583725 -1.626376 -1.669027 -1.711572 -1.753709 -1.795845 -1.837982 -1.880119 -1.922255 -1.964392 -2.000000 -2.000000 -2.000000 -2.000000 -2.000000 -2.000000 -2.000000 -2.000000 -2.000000 -2.000000 -2.000000 -2.000000 -2.000000 -1.927875 -1.850410 -1.771629 -1.692847 -1.614065 -1.535283 -1.456501 -1.377719 -1.298938 -1.220156 -1.147244 -1.079322 -1.035226 -1.044464 -1.053701 -1.062939 -1.072177 -1.081414 -1.090652 -1.099889 -1.109251 -1.118975 -1.128700 -1.138425 -1.148149 -1.156107 -1.162713 -1.169319 -1.175926 -1.182532 -1.189138 -1.197086 -1.205267 -1.213448 -1.221630 -1.229811 -1.237993 -1.246174 -1.252115 -1.257505 -1.262894 -1.269365 -1.277305 -1.285245 -1.293186 -1.301126 -1.309066 -1.317007 -1.324947 -1.332887 -1.340675 -1.347421 -1.356899 -1.366377 -1.375855 -1.385030 -1.392912 -1.400793 -1.408675 -1.416556 -1.424438 -1.432319 -1.442899 -1.453546 -1.464085 -1.474624 -1.485164 -1.495703 -1.506242 -1.516781 -1.527320 -1.537859 -1.551169 -1.564485 -1.577801 -1.591117 -1.604626 -1.618202 -1.631778 -1.645354 -1.658930 -1.673151 -1.689090 -1.705028 -1.720966 -1.736905 -1.752843 -1.768781 -1.784742 -1.801094 -1.817447 -1.835041 -1.853094 -1.871148 -1.889201 -1.907254 -1.925308 -1.942585 -1.957182 -1.971779 -1.986702 -2.002076 -2.017522 -2.032967 -2.048412 -2.063858 -2.079303 -2.094749 -2.110194 -2.125573 -2.140922 -2.156271 -2.171619 -2.186985 -2.202592 -2.218199 -2.233806 -2.248940 -2.263062 -2.277184 -2.291306 -2.305428 -2.319550 -2.333672 -2.347793 -2.356194 -2.359477 -2.362873 -2.366270 -2.369666 -2.373062 -2.376458 -2.379855 -2.383251 -2.386647 -2.390044 -2.390191 -2.385513 -2.380835 -2.376157 -2.371479 -2.366801 -2.362123 -2.348395 -2.331565 -2.314736 -2.293573 -2.265081 -2.236588 -2.208096 -2.179604 -2.151112 -2.122619 -2.095673 -2.068834 -2.041995 -2.004675 -1.961299 -1.915468
0.610931 0.714796 0.818660 0.893461 0.880837 0.868212 0.855587 0.842962 0.830337 0.817713 0.805088 0.792463 0.790661 0.790074 0.789487 0.788901 0.788314 0.787727 0.769083 0.750089 0.731095 0.712101 0.693107 0.674113 0.655119 0.636125 0.617131 0.603134 0.601182 0.599230 0.572096 0.536883 0.501670 0.466457 0.431244 0.396031 0.360818 0.325605 0.289075 0.251551 0.214027 0.212187 0.155045 0.094578 0.034112 -0.026354 -0.086821 -0.147287 -0.207754 -0.268220 -0.328686 -0.389405 -0.467135 -0.544865 -0.622594 -0.653109 -0.672194 -0.691279 -0.710364 -0.729450 -0.748535 -0.767620 -0.808594 -0.858625 -0.908656 -0.958687 -1.008718 -1.057289 -1.075022 -1.092755 -1.110488 -1.128222 -1.146289 -1.164507 -1.182724 -1.200941 -1.219159 -1.237376 -1.255593 -1.273810 -1.295636 -1.321411 -1.338987 -1.355078 -1.371170 -1.387261 -1.403352 -1.419443 -1.437907 -1.457887 -1.477867 -1.497847 -1.500000 -1.500000 -1.500000 -1.500000 -1.500000 -1.500000 -1.500000 -1.500000 -1.500000 -1.500000 -1.500000 -1.500000 -1.500000 -1.500000 -1.500000 -1.500000 -1.500000 -1.500000 -1.500000 -1.500000 -1.500000 -1.500000 -1.500000 -1.500000 -1.500000 -1.500000 -1.500000 -1.500000 -1.500000 -1.500000 -1.500000 -1.500000 -1.534929 -1.577581 -1.620232 -1.662670 -1.704806 -1.746943 -1.789079 -1.831216 -1.873353 -1.915489 -1.957626 -1.999762 -2.000000 -2.000000 -2.000000 -2.000000 -2.000000 -2.000000 -2.000000 -2.000000 -2.000000 -2.000000 -2.000000 -2.000000 -1.944206 -1.865424 -1.786642 -1.707861 -1.629079 -1.550297 -1.471515 -1.392733 -1.313951 -1.242402 -1.174480 -1.106558 -1.045945 -1.055182 -1.064420 -1.073657 -1.082895 -1.092133 -1.101370 -1.110765 -1.120490 -1.130214 -1.139939 -1.149664 -1.159388 -1.168078 -1.174685 -1.181291 -1.187897 -1.194504 -1.202470 -1.210652 -1.218833 -1.227014 -1.235196 -1.243377 -1.251559 -1.259740 -1.266403 -1.271792 -1.278144 -1.286084 -1.294024 -1.301965 -1.309905 -1.317845 -1.325786 -1.333726 -1.341666 -1.349606 -1.356344 -1.364468 -1.372350 -1.380231 -1.388113 -1.395994 -1.403876 -1.411757 -1.419639 -1.427520 -1.435402 -1.445540 -1.456263 -1.466972 -1.477511 -1.488050 -1.498589 -1.509128 -1.519667 -1.530206 -1.540745 -1.553496 -1.566811 -1.580127 -1.593443 -1.606759 -1.620176 -1.633752 -1.647328 -1.660904 -1.674529 -1.690467 -1.706405 -1.722344 -1.738282 -1.754220 -1.770159 -1.786097 -1.802035 -1.818250 -1.835295 -1.853348 -1.871402 -1.889455 -1.904464 -1.919061 -1.933658 -1.948255 -1.962852 -1.977536 -1.992858 -2.008180 -2.023624 -2.039070 -2.054515 -2.069961 -2.085406 -2.100852 -2.116271 -2.131619 -2.146968 -2.162317 -2.177665 -2.193014 -2.208519 -2.224126 -2.239733 -2.254144 -2.268266 -2.282388 -2.296510 -2.310632 -2.324375 -2.332922 -2.341469 -2.347869 -2.350767 -2.352914 -2.355060 -2.357625 -2.361021 -2.364418 -2.367814 -2.371210 -2.374607 -2.378003 -2.381399 -2.377384 -2.372706 -2.368028 -2.363350 -2.356027 -2.339198 -2.322369 -2.305539 -2.288710 -2.271881 -2.244749 -2.216257 -2.187765 -2.159272 -2.130780 -2.102288 -2.073796 -2.045303 -2.016811 -1.975670 -1.929552 -1.883721
0.809358 0.913222 1.017086 1.065414 1.052789 1.040164 1.027540 1.014915 1.002290 0.989665 0.977040 0.964416 0.951791 0.939166 0.926541 0.919279 0.918693 0.915066 0.896072 0.877078 0.858084 0.839090 0.820096 0.801102 0.782108 0.763114 0.739834 0.713498 0.687161 0.660825 0.628943 0.591418 0.553894 0.516370 0.478845 0.441321 0.403797 0.366272 0.328748 0.291224 0.253699 0.256688 0.273501 0.290314 0.280400 0.219934 0.159468 0.099001 0.038535 -0.021931 -0.082398 -0.144427 -0.222157 -0.299887 -0.377617 -0.455347 -0.533076 -0.593327 -0.612412 -0.631497 -0.650583 -0.669668 -0.712956 -0.762987 -0.813018 -0.863049 -0.913080 -0.963111 -1.013142 -1.063173 -1.092569 -1.110302 -1.128404 -1.146621 -1.164839 -1.183056 -1.201273 -1.219491 -1.237708 -1.257386 -1.277539 -1.297693 -1.317476 -1.337456 -1.357436 -1.377415 -1.397395 -1.417375 -1.437355 -1.457335 -1.477315 -1.497295 -1.500000 -1.500000 -1.500000 -1.500000 -1.500000 -1.500000 -1.500000 -1.500000 -1.500000 -1.500000 -1.500000 -1.500000 -1.500000 -1.500000 -1.500000 -1.500000 -1.500000 -1.500000 -1.500000 -1.500000 -1.500000 -1.500000 -1.500000 -1.500000 -1.500000 -1.500000 -1.500000 -1.500000 -1.500000 -1.500000 -1.500000 -1.500000 -1.528785 -1.571437 -1.613767 -1.655904 -1.698040 -1.740177 -1.782313 -1.824450 -1.866587 -1.908723 -1.950860 -1.993016 -2.000000 -2.000000 -2.000000 -2.000000 -2.000000 -2.000000 -2.000000 -2.000000 -2.000000 -2.000000 -2.000000 -2.000000 -1.959220 -1.880438 -1.801656 -1.722874 -1.644093 -1.565311 -1.486529 -1.407747 -1.337560 -1.269638 -1.201716 -1.133794 -1.065871 -1.065901 -1.075138 -1.084376 -1.093614 -1.102851 -1.112279 -1.122004 -1.131729 -1.141453 -1.151178 -1.160903 -1.170627 -1.180050 -1.186656 -1.193262 -1.199869 -1.207855 -1.216036 -1.224217 -1.232399 -1.240580 -1.248762 -1.256943 -1.265125 -1.273306 -1.280690 -1.286922 -1.294863 -1.302803 -1.310743 -1.318466 -1.325045 -1.331625 -1.338204 -1.344783 -1.351363 -1.357942 -1.366897 -1.375432 -1.383314 -1.391195 -1.399077 -1.406958 -1.414840 -1.422721 -1.430603 -1.438484 -1.448181 -1.458904 -1.469627 -1.480350 -1.490936 -1.501475 -1.512014 -1.522554 -1.533093 -1.543632 -1.555822 -1.569138 -1.582453 -1.595769 -1.609085 -1.622401 -1.635725 -1.649301 -1.662877 -1.676453 -1.691844 -1.707783 -1.723721 -1.739659 -1.755598 -1.771536 -1.787474 -1.803413 -1.819351 -1.835549 -1.851747 -1.866343 -1.880940 -1.895537 -1.910134 -1.924731 -1.939328 -1.953925 -1.968522 -1.983693 -1.999014 -2.014336 -2.029727 -2.045172 -2.060618 -2.076063 -2.091509 -2.106954 -2.122317 -2.137665 -2.153014 -2.168363 -2.183711 -2.199060 -2.214447 -2.230054 -2.245227 -2.259349 -2.273470 -2.287592 -2.298973 -2.307519 -2.316066 -2.324613 -2.332275 -2.338397 -2.343194 -2.345340 -2.347487 -2.349633 -2.351779 -2.353925 -2.356071 -2.359170 -2.362566 -2.365962 -2.369359 -2.369256 -2.364578 -2.359900 -2.346831 -2.330001 -2.313172 -2.296343 -2.279513 -2.262684 -2.245855 -2.224418 -2.195926 -2.167433 -2.138941 -2.110449 -2.081956 -2.053464 -2.024151 -1.986046 -1.947941 -1.901202 -1.854415
0.948014 1.104793 1.215513 1.237366 1.224742 1.212117 1.199492 1.186867 1.174242 1.160400 1.142410 1.124420 1.106429 1.088439 1.070449 1.052458 1.034468 1.010070 0.975649 0.949313 0.922977 0.896641 0.870305 0.843968 0.817632 0.791296 0.764960 0.738623 0.712287 0.685818 0.653833 0.621849 0.589864 0.556042 0.518518 0.480994 0.443469 0.405945 0.368421 0.330896 0.293372 0.301189 0.318001 0.334814 0.351627 0.368440 0.385252 0.345290 0.284823 0.224357 0.163891 0.100550 0.022820 -0.054910 -0.132639 -0.210369 -0.288099 -0.365829 -0.443559 -0.521288 -0.552630 -0.571716 -0.617319 -0.667350 -0.717381 -0.767412 -0.817443 -0.867474 -0.917505 -0.967501 -1.017409 -1.067317 -1.116463 -1.136617 -1.156770 -1.176924 -1.197078 -1.217231 -1.237385 -1.257539 -1.277693 -1.297846 -1.317516 -1.337128 -1.356884 -1.376863 -1.396843 -1.416823 -1.436803 -1.456783 -1.476763 -1.496743 -1.500000 -1.500000 -1.500000 -1.500000 -1.500000 -1.500000 -1.500000 -1.500000 -1.500000 -1.500000 -1.500000 -1.500000 -1.500000 -1.500000 -1.500000 -1.500000 -1.500000 -1.500000 -1.500000 -1.500000 -1.500000 -1.500000 -1.500000 -1.500000 -1.500000 -1.500000 -1.500000 -1.500000 -1.500000 -1.500000 -1.500000 -1.500000 -1.522642 -1.564864 -1.607001 -1.649137 -1.691332 -1.733561 -1.775789 -1.818018 -1.860247 -1.902475 -1.944635 -1.986194 -2.000000 -2.000000 -2.000000 -2.000000 -2.000000 -2.000000 -2.000000 -2.000000 -2.000000 -2.000000 -2.000000 -2.000000 -1.974234 -1.895452 -1.816670 -1.737888 -1.659107 -1.580325 -1.501543 -1.432718 -1.364796 -1.296874 -1.228951 -1.161029 -1.093107 -1.076619 -1.085857 -1.095094 -1.104332 -1.113793 -1.123518 -1.133243 -1.142967 -1.152692 -1.162417 -1.172141 -1.181866 -1.191591 -1.198628 -1.205234 -1.213239 -1.221420 -1.229602 -1.237783 -1.245965 -1.254146 -1.262328 -1.270509 -1.278690 -1.286222 -1.293790 -1.300369 -1.306949 -1.313528 -1.320107 -1.326687 -1.333266 -1.339846 -1.346425 -1.353004 -1.359584 -1.368272 -1.377450 -1.386396 -1.394278 -1.402159 -1.410041 -1.417922 -1.425804 -1.433685 -1.441567 -1.450822 -1.461545 -1.472268 -1.482991 -1.493714 -1.504362 -1.514901 -1.525440 -1.535979 -1.546518 -1.558148 -1.571464 -1.584780 -1.598095 -1.611411 -1.624727 -1.638043 -1.651359 -1.664851 -1.678427 -1.693222 -1.709160 -1.725098 -1.741037 -1.756975 -1.772913 -1.788852 -1.802830 -1.815853 -1.828876 -1.842864 -1.857417 -1.872014 -1.886610 -1.901207 -1.915804 -1.930401 -1.944998 -1.959595 -1.974527 -1.989849 -2.005170 -2.020492 -2.035830 -2.051275 -2.066721 -2.082166 -2.097611 -2.113014 -2.128363 -2.143711 -2.159060 -2.174409 -2.189757 -2.205106 -2.220455 -2.235981 -2.250431 -2.264553 -2.273570 -2.282117 -2.290664 -2.299210 -2.307757 -2.316304 -2.322803 -2.328925 -2.335046 -2.337767 -2.339913 -2.342060 -2.344206 -2.346352 -2.348498 -2.350644 -2.352790 -2.354936 -2.357318 -2.360714 -2.354463 -2.337634 -2.320805 -2.303975 -2.287146 -2.270317 -2.253487 -2.236658 -2.219829 -2.202999 -2.175594 -2.147102 -2.118610 -2.090117 -2.061625 -2.030199 -1.992094 -1.953989 -1.915883 -1.873521 -1.826733
1.062162 1.222869 1.383577 1.357992 1.317913 1.290050 1.272060 1.254070 1.236079 1.218089 1.200099 1.182108 1.164118 1.146128 1.128137 1.110147 1.092157 1.064222 1.028099 0.991976 0.955854 0.921767 0.895430 0.869094 0.842758 0.816422 0.790085 0.763749 0.737413 0.710154 0.678169 0.646185 0.614200 0.582215 0.550231 0.518246 0.483142 0.445618 0.408093 0.370569 0.333045 0.345689 0.362502 0.379315 0.396128 0.412940 0.429753 0.446566 0.463379 0.470645 0.410179 0.345528 0.267798 0.190068 0.112338 0.034608 -0.043122 -0.120851 -0.198581 -0.284923 -0.375857 -0.466791 -0.521255 -0.571163 -0.621071 -0.670979 -0.720887 -0.770795 -0.820703 -0.870612 -0.920520 -0.970428 -1.038262 -1.108946 -1.156924 -1.177077 -1.197231 -1.217385 -1.237538 -1.257692 -1.277846 -1.297999 -1.317665 -1.337277 -1.356889 -1.376501 -1.396291 -1.416271 -1.436251 -1.456231 -1.476211 -1.496191 -1.500000 -1.500000 -1.500000 -1.500000 -1.500000 -1.500000 -1.500000 -1.500000 -1.500000 -1.500000 -1.500000 -1.500000 -1.500000 -1.500000 -1.500000 -1.500000 -1.500000 -1.500000 -1.500000 -1.500000 -1.500000 -1.500000 -1.500000 -1.500000 -1.500000 -1.500000 -1.500000 -1.500000 -1.500000 -1.500000 -1.500000 -1.500000 -1.516334 -1.558563 -1.600792 -1.643020 -1.685249 -1.727478 -1.769706 -1.811935 -1.854164 -1.896188 -1.937748 -1.979307 -2.000000 -2.000000 -2.000000 -2.000000 -2.000000 -2.000000 -2.000000 -2.000000 -2.000000 -2.000000 -2.000000 -2.000000 -1.989248 -1.910466 -1.831684 -1.752902 -1.674120 -1.595798 -1.527876 -1.459954 -1.392031 -1.324109 -1.256187 -1.188265 -1.120343 -1.087338 -1.096575 -1.105813 -1.115308 -1.125032 -1.134757 -1.144482 -1.154206 -1.163931 -1.173656 -1.183380 -1.193105 -1.202830 -1.210599 -1.218623 -1.226805 -1.234986 -1.242620 -1.249612 -1.256604 -1.263597 -1.270589 -1.277581 -1.284573 -1.292111 -1.301289 -1.308590 -1.315170 -1.321749 -1.328328 -1.334908 -1.341487 -1.348067 -1.354646 -1.361225 -1.369647 -1.378825 -1.388003 -1.397181 -1.405242 -1.413123 -1.421005 -1.428887 -1.436768 -1.444650 -1.453464 -1.464187 -1.474910 -1.485632 -1.496355 -1.507078 -1.517787 -1.528326 -1.538865 -1.549404 -1.560474 -1.573790 -1.587106 -1.600422 -1.613738 -1.627053 -1.640369 -1.653685 -1.667001 -1.680400 -1.694599 -1.710537 -1.726476 -1.742414 -1.755682 -1.768705 -1.781729 -1.794752 -1.807775 -1.820799 -1.834470 -1.848687 -1.863087 -1.877684 -1.892281 -1.906878 -1.921474 -1.936071 -1.950668 -1.965362 -1.980683 -1.996005 -2.011326 -2.026648 -2.041969 -2.057378 -2.072823 -2.088269 -2.103711 -2.119060 -2.134409 -2.149757 -2.165106 -2.180455 -2.195803 -2.211152 -2.226501 -2.239620 -2.248167 -2.256714 -2.265261 -2.273808 -2.282355 -2.290902 -2.299448 -2.307209 -2.313331 -2.319453 -2.325574 -2.330194 -2.332340 -2.334486 -2.336632 -2.338779 -2.340925 -2.343071 -2.345217 -2.347363 -2.349509 -2.343489 -2.330936 -2.312571 -2.294779 -2.277949 -2.261120 -2.244291 -2.227461 -2.210632 -2.193803 -2.176973 -2.155263 -2.126771 -2.098278 -2.069786 -2.036248 -1.998142 -1.960037 -1.921931 -1.883826 -1.845721 -1.799052
1.235306 1.396013 1.526593 1.486513 1.446434 1.406354 1.366274 1.326195 1.293768 1.275777 1.257787 1.239797 1.221806 1.203816 1.185826 1.167835 1.149845 1.118373 1.082250 1.046128 1.010005 0.973883 0.937760 0.901638 0.867884 0.841548 0.815211 0.788875 0.762539 0.734490 0.702505 0.670521 0.638536 0.606551 0.574566 0.542582 0.510597 0.478612 0.446628 0.410242 0.373377 0.390190 0.407003 0.423815 0.440628 0.457441 0.474254 0.491066 0.509492 0.528337 0.547183 0.537325 0.452426 0.361492 0.270558 0.179625 0.088691 -0.002243 -0.093177 -0.184111 -0.275045 -0.365978 -0.419602 -0.472653 -0.524181 -0.574089 -0.623997 -0.673906 -0.723814 -0.773722 -0.823630 -0.873538 -0.942172 -1.012856 -1.083539 -1.154223 -1.197384 -1.217538 -1.237692 -1.257845 -1.277999 -1.298153 -1.317814 -1.337426 -1.357038 -1.376650 -1.396262 -1.415874 -1.435699 -1.455679 -1.475659 -1.495639 -1.500000 -1.500000 -1.500000 -1.500000 -1.500000 -1.500000 -1.500000 -1.500000 -1.500000 -1.500000 -1.500000 -1.500000 -1.500000 -1.500000 -1.500000 -1.500000 -1.500000 -1.500000 -1.500000 -1.500000 -1.497297 -1.500000 -1.500000 -1.500000 -1.500000 -1.500000 -1.500000 -1.500000 -1.500000 -1.500000 -1.500000 -1.500000 -1.510251 -1.552480 -1.594709 -1.636937 -1.679166 -1.721395 -1.763623 -1.805852 -1.847742 -1.889301 -1.930861 -1.972420 -2.000000 -2.000000 -2.000000 -2.000000 -2.000000 -2.000000 -2.000000 -2.000000 -2.000000 -2.000000 -2.000000 -2.000000 -2.000000 -1.925480 -1.846698 -1.767916 -1.690956 -1.623034 -1.555111 -1.487189 -1.419267 -1.351345 -1.283423 -1.215500 -1.147578 -1.098056 -1.107294 -1.116822 -1.126547 -1.136271 -1.145996 -1.155721 -1.165445 -1.175170 -1.184895 -1.193984 -1.202568 -1.211152 -1.219994 -1.226986 -1.233979 -1.240971 -1.247963 -1.254955 -1.261948 -1.268940 -1.275932 -1.282925 -1.290382 -1.299560 -1.308738 -1.316811 -1.323391 -1.329970 -1.336549 -1.343129 -1.349708 -1.356288 -1.362867 -1.371022 -1.380200 -1.389378 -1.398556 -1.407734 -1.416206 -1.424088 -1.431969 -1.439851 -1.447732 -1.456105 -1.466828 -1.477551 -1.488274 -1.498997 -1.509719 -1.520442 -1.531165 -1.541752 -1.552291 -1.562830 -1.576116 -1.589432 -1.602748 -1.616064 -1.629380 -1.642695 -1.656011 -1.669327 -1.682643 -1.695532 -1.708534 -1.721558 -1.734581 -1.747604 -1.760628 -1.773651 -1.786674 -1.799697 -1.812721 -1.826075 -1.840292 -1.854509 -1.868757 -1.883354 -1.897951 -1.912548 -1.927145 -1.941741 -1.956338 -1.971518 -1.986839 -2.002161 -2.017483 -2.032804 -2.048126 -2.063480 -2.078926 -2.094371 -2.109757 -2.125106 -2.140455 -2.155803 -2.171152 -2.186501 -2.200215 -2.210839 -2.221464 -2.231100 -2.239858 -2.248405 -2.256952 -2.265499 -2.274046 -2.282593 -2.291139 -2.297737 -2.303859 -2.309981 -2.316102 -2.322224 -2.324767 -2.326913 -2.329059 -2.331205 -2.333352 -2.335498 -2.337644 -2.333380 -2.325843 -2.318305 -2.310768 -2.292654 -2.274289 -2.255924 -2.237559 -2.219194 -2.201435 -2.184606 -2.167777 -2.150947 -2.134118 -2.106439 -2.077947 -2.042296 -2.004190 -1.966085 -1.927979 -1.889874 -1.851769 -1.813663 -1.771371
1.408450 1.569157 1.655113 1.615034 1.574954 1.534875 1.494795 1.454716 1.414636 1.374557 1.334477 1.297485 1.279495 1.261505 1.243514 1.225524 1.207534 1.172524 1.136402 1.100279 1.064157 1.028034 0.991912 0.955789 0.919666 0.883544 0.847421 0.814001 0.787665 0.758826 0.726841 0.694856 0.662872 0.630887 0.598902 0.566918 0.536723 0.508129 0.479534 0.450940 0.427392 0.445778 0.464623 0.483469 0.502314 0.521160 0.540005 0.558850 0.577696 0.596541 0.615387 0.598709 0.527370 0.456031 0.371370 0.280437 0.189503 0.098569 0.007635 -0.083299 -0.174233 -0.263559 -0.316610 -0.369661 -0.422713 -0.475764 -0.527108 -0.577016 -0.626924 -0.676832 -0.726740 -0.776649 -0.846083 -0.916766 -0.987450 -1.058133 -1.128817 -1.199501 -1.237845 -1.257999 -1.278152 -1.298306 -1.317963 -1.337575 -1.357187 -1.376799 -1.396411 -1.416023 -1.435635 -1.455247 -1.475107 -1.495087 -1.500000 -1.500000 -1.500000 -1.500000 -1.500000 -1.500000 -1.500000 -1.500000 -1.500000 -1.500000 -1.499339 -1.496379 -1.493418 -1.490458 -1.487498 -1.484537 -1.481577 -1.478616 -1.475656 -1.472695 -1.490154 -1.500000 -1.500000 -1.500000 -1.500000 -1.500000 -1.500000 -1.500000 -1.500000 -1.500000 -1.500000 -1.500000 -1.504168 -1.546397 -1.588626 -1.630854 -1.673083 -1.715312 -1.757540 -1.799295 -1.840855 -1.882414 -1.923973 -1.965533 -2.000000 -2.000000 -2.000000 -2.000000 -2.000000 -2.000000 -2.000000 -2.000000 -2.000000 -2.000000 -2.000000 -2.000000 -2.000000 -1.940494 -1.861712 -1.786114 -1.718191 -1.650269 -1.582347 -1.514425 -1.446503 -1.378580 -1.310658 -1.242736 -1.174814 -1.108775 -1.118336 -1.128061 -1.136754 -1.145337 -1.153921 -1.162504 -1.171088 -1.179671 -1.188255 -1.196839 -1.205422 -1.215508 -1.225338 -1.232330 -1.239322 -1.246314 -1.253307 -1.260299 -1.267291 -1.274284 -1.281276 -1.288653 -1.297831 -1.307009 -1.316187 -1.325032 -1.331612 -1.338191 -1.344770 -1.351350 -1.357929 -1.364509 -1.372397 -1.381575 -1.390753 -1.399931 -1.409109 -1.418288 -1.427170 -1.435052 -1.442933 -1.450815 -1.458746 -1.469469 -1.480192 -1.490915 -1.501638 -1.512361 -1.523084 -1.533806 -1.544529 -1.555177 -1.565716 -1.578442 -1.591758 -1.605074 -1.618390 -1.631706 -1.644988 -1.655889 -1.666790 -1.677692 -1.688593 -1.700698 -1.713480 -1.726503 -1.739526 -1.752550 -1.765573 -1.778596 -1.791620 -1.804643 -1.817680 -1.831897 -1.846114 -1.860331 -1.874548 -1.889024 -1.903621 -1.918218 -1.932815 -1.947412 -1.962353 -1.977674 -1.992996 -2.008317 -2.023639 -2.038960 -2.054282 -2.069603 -2.085029 -2.100455 -2.115803 -2.131152 -2.146501 -2.160283 -2.170908 -2.181533 -2.192158 -2.202782 -2.212898 -2.222367 -2.231549 -2.240096 -2.248643 -2.257190 -2.265737 -2.274284 -2.282144 -2.288265 -2.294387 -2.300509 -2.306630 -2.312752 -2.317194 -2.319340 -2.321486 -2.323632 -2.325778 -2.323271 -2.315734 -2.308196 -2.300659 -2.293121 -2.285584 -2.272736 -2.254371 -2.236006 -2.217641 -2.199276 -2.180911 -2.162546 -2.144181 -2.125816 -2.108092 -2.086108 -2.048344 -2.010238 -1.972133 -1.934028 -1.895922 -1.857817 -1.819711 -1.781606 -1.743501
1.581594 1.742302 1.783634 1.743554 1.703475 1.663395 1.623316 1.583236 1.543157 1.503077 1.462998 1.422918 1.382839 1.342759 1.302680 1.283212 1.262798 1.226676 1.190553 1.154431 1.118308 1.082185 1.046063 1.010109 0.976255 0.942400 0.908546 0.874692 0.840837 0.804921 0.772821 0.744226 0.715632 0.687037 0.658443 0.629848 0.601254 0.572659 0.544065 0.515470 0.496931 0.515141 0.533351 0.551673 0.570518 0.589363 0.608209 0.627054 0.645900 0.664745 0.683590 0.660093 0.588754 0.517414 0.446075 0.374736 0.290315 0.199381 0.108447 0.017513 -0.073421 -0.160567 -0.213618 -0.266670 -0.319721 -0.372772 -0.425824 -0.478875 -0.530035 -0.579943 -0.629851 -0.679759 -0.749993 -0.820676 -0.891360 -0.962044 -1.032727 -1.103411 -1.174094 -1.244778 -1.278305 -1.298459 -1.318113 -1.337724 -1.357336 -1.376948 -1.396560 -1.416172 -1.435784 -1.455396 -1.475008 -1.494620 -1.498671 -1.495987 -1.493304 -1.490621 -1.487938 -1.485254 -1.482571 -1.479888 -1.477205 -1.474521 -1.471777 -1.468817 -1.465857 -1.462896 -1.459936 -1.456975 -1.454015 -1.451054 -1.451681 -1.469836 -1.487991 -1.500000 -1.500000 -1.500000 -1.500000 -1.500000 -1.500000 -1.500000 -1.500000 -1.500000 -1.500000 -1.500000 -1.500000 -1.540314 -1.582543 -1.624771 -1.667000 -1.709229 -1.750849 -1.792408 -1.833967 -1.875527 -1.917086 -1.958645 -2.000000 -2.000000 -2.000000 -2.000000 -2.000000 -2.000000 -2.000000 -2.000000 -2.000000 -2.000000 -2.000000 -2.000000 -2.000000 -1.955508 -1.881272 -1.813349 -1.745427 -1.677505 -1.609583 -1.541661 -1.468205 -1.390909 -1.313613 -1.236316 -1.159020 -1.121160 -1.122440 -1.131024 -1.139608 -1.148191 -1.156775 -1.165358 -1.173942 -1.182525 -1.191109 -1.199694 -1.209839 -1.219984 -1.230130 -1.237673 -1.244666 -1.251658 -1.258650 -1.265643 -1.272635 -1.279627 -1.286924 -1.296102 -1.305280 -1.314458 -1.323636 -1.332814 -1.339833 -1.346412 -1.352991 -1.359571 -1.366150 -1.373772 -1.382950 -1.392128 -1.401306 -1.410484 -1.419663 -1.428841 -1.438019 -1.446016 -1.453897 -1.461779 -1.472110 -1.482833 -1.493556 -1.504279 -1.515002 -1.525725 -1.536448 -1.547171 -1.557893 -1.568603 -1.580768 -1.594084 -1.605363 -1.616265 -1.627166 -1.638067 -1.648968 -1.659870 -1.670771 -1.681672 -1.693433 -1.705864 -1.718425 -1.731449 -1.744472 -1.757495 -1.770519 -1.783542 -1.796565 -1.809589 -1.823503 -1.837720 -1.851937 -1.866154 -1.880370 -1.894694 -1.909291 -1.923888 -1.938485 -1.953187 -1.968509 -1.983830 -1.999152 -2.014473 -2.029795 -2.045116 -2.060438 -2.075759 -2.091131 -2.106501 -2.120352 -2.130977 -2.141602 -2.152226 -2.162851 -2.173476 -2.184101 -2.194696 -2.204165 -2.213634 -2.223103 -2.231787 -2.240334 -2.248881 -2.257428 -2.265975 -2.272672 -2.278793 -2.284915 -2.291037 -2.297158 -2.303280 -2.309402 -2.311767 -2.313913 -2.313162 -2.305625 -2.298087 -2.290550 -2.283013 -2.275475 -2.267938 -2.260400 -2.252818 -2.234453 -2.216088 -2.197723 -2.179358 -2.160993 -2.142628 -2.124263 -2.105898 -2.084530 -2.056852 -2.018238 -1.978998 -1.940076 -1.901970 -1.863865 -1.825759 -1.787654 -1.749549 -1.711443
1.754738 1.915446 1.912154 1.872075 1.831995 1.791916 1.751836 1.711757 1.670366 1.622098 1.573831 1.525564 1.477297 1.429030 1.380763 1.332496 1.300000 1.298098 1.264244 1.230390 1.196535 1.162681 1.128827 1.094972 1.061118 1.027264 0.993410 0.959555 0.925701 0.889267 0.851892 0.814517 0.780163 0.751568 0.722974 0.694379 0.665785 0.637190 0.608596 0.580001 0.566470 0.584680 0.602890 0.621100 0.639310 0.657567 0.676413 0.695258 0.714103 0.732949 0.751794 0.721476 0.650137 0.578798 0.507459 0.436120 0.364781 0.293442 0.209259 0.118325 0.027392 -0.057575 -0.110627 -0.163678 -0.216729 -0.269781 -0.322832 -0.375883 -0.428935 -0.481986 -0.532961 -0.583219 -0.653903 -0.724587 -0.795270 -0.865954 -0.936637 -1.007321 -1.078005 -1.148688 -1.219372 -1.289241 -1.310504 -1.324981 -1.339457 -1.353933 -1.368410 -1.382886 -1.397362 -1.411839 -1.426315 -1.440791 -1.454517 -1.467845 -1.465715 -1.463032 -1.460349 -1.457666 -1.454982 -1.452299 -1.449616 -1.446933 -1.444216 -1.441255 -1.438295 -1.435334 -1.432374 -1.429413 -1.426453 -1.431363 -1.449518 -1.467673 -1.485828 -1.500000 -1.500000 -1.500000 -1.500000 -1.500000 -1.500000 -1.500000 -1.500000 -1.500000 -1.500000 -1.500000 -1.500000 -1.534231 -1.576460 -1.618688 -1.660843 -1.702402 -1.743961 -1.785521 -1.827080 -1.868639 -1.910199 -1.951758 -1.993317 -2.000000 -2.000000 -2.000000 -2.000000 -2.000000 -2.000000 -2.000000 -2.000000 -2.000000 -2.000000 -2.000000 -1.996455 -1.963233 -1.885937 -1.808640 -1.731344 -1.654048 -1.576751 -1.499455 -1.422158 -1.344862 -1.267565 -1.190269 -1.158437 -1.132453 -1.125295 -1.133878 -1.142462 -1.151045 -1.159629 -1.168212 -1.176796 -1.185379 -1.194025 -1.204170 -1.214315 -1.224460 -1.234606 -1.243017 -1.250009 -1.257001 -1.263994 -1.270986 -1.277978 -1.285195 -1.294373 -1.303551 -1.312729 -1.321907 -1.331085 -1.340263 -1.348054 -1.354633 -1.361212 -1.367792 -1.375147 -1.384325 -1.393503 -1.402681 -1.411860 -1.421038 -1.430216 -1.439394 -1.448572 -1.456980 -1.464861 -1.474752 -1.485475 -1.496197 -1.506920 -1.517643 -1.528366 -1.539089 -1.549663 -1.558453 -1.567243 -1.576731 -1.587541 -1.598443 -1.609344 -1.620245 -1.631146 -1.642048 -1.652949 -1.663850 -1.674752 -1.686169 -1.698599 -1.711029 -1.723460 -1.736394 -1.749418 -1.762441 -1.775464 -1.788488 -1.801511 -1.815108 -1.829325 -1.843542 -1.857759 -1.871976 -1.886193 -1.900410 -1.914961 -1.929558 -1.944155 -1.959343 -1.974665 -1.989986 -2.005308 -2.020629 -2.035951 -2.051272 -2.066594 -2.079842 -2.091039 -2.101671 -2.112295 -2.122920 -2.133545 -2.144169 -2.154794 -2.165419 -2.176044 -2.185963 -2.195432 -2.204901 -2.214370 -2.223478 -2.232025 -2.240572 -2.249119 -2.257078 -2.263199 -2.269321 -2.275443 -2.281564 -2.287686 -2.293808 -2.299930 -2.303053 -2.295516 -2.287979 -2.280441 -2.272904 -2.265366 -2.257829 -2.250291 -2.242754 -2.235216 -2.227679 -2.214536 -2.196171 -2.177806 -2.159441 -2.141076 -2.122711 -2.104346 -2.079145 -2.051467 -2.023788 -1.990945 -1.951705 -1.912465 -1.873225 -1.833984 -1.794744 -1.755597 -1.717491 -1.679386
1.735872 1.927253 1.918985 1.902492 1.854225 1.805958 1.757691 1.709424 1.661157 1.612890 1.564623 1.516356 1.468089 1.419822 1.371555 1.323288 1.300000 1.300000 1.300000 1.300000 1.281399 1.247545 1.213690 1.179836 1.145982 1.112127 1.078273 1.044419 1.010564 0.973613 0.936238 0.898863 0.861488 0.824113 0.787504 0.758910 0.730315 0.701721 0.673126 0.644532 0.636009 0.654219 0.672429 0.690639 0.708849 0.727059 0.745269 0.763479 0.782307 0.801153 0.819998 0.782860 0.711521 0.640182 0.568843 0.497504 0.426164 0.354825 0.283486 0.212147 0.128204 0.045416 -0.007635 -0.060686 -0.113738 -0.166789 -0.219840 -0.272892 -0.325943 -0.378918 -0.430793 -0.483597 -0.553238 -0.622394 -0.691550 -0.760706 -0.829862 -0.899018 -0.968174 -1.037331 -1.106487 -1.175643 -1.225496 -1.268475 -1.282951 -1.297427 -1.311903 -1.326380 -1.340856 -1.355332 -1.369809 -1.384285 -1.398095 -1.411423 -1.424752 -1.435443 -1.432760 -1.430077 -1.427393 -1.424710 -1.422027 -1.419344 -1.416654 -1.413693 -1.410733 -1.407772 -1.404812 -1.401852 -1.411045 -1.429200 -1.447355 -1.465510 -1.483664 -1.500000 -1.500000 -1.500000 -1.500000 -1.500000 -1.500000 -1.500000 -1.500000 -1.500000 -1.500000 -1.500000 -1.500000 -1.528148 -1.570377 -1.612396 -1.653955 -1.695515 -1.737074 -1.778633 -1.820193 -1.861752 -1.903311 -1.944871 -1.986430 -2.000000 -2.000000 -2.000000 -1.994599 -1.986935 -1.979271 -1.971606 -1.963942 -1.956278 -1.948613 -1.940949 -1.934593 -1.917186 -1.839890 -1.762593 -1.685297 -1.608000 -1.530704 -1.453407 -1.376111 -1.298815 -1.221697 -1.195713 -1.169729 -1.143745 -1.128149 -1.136732 -1.145316 -1.153899 -1.162483 -1.171066 -1.179650 -1.188356 -1.198501 -1.208646 -1.218791 -1.228937 -1.239082 -1.248360 -1.255353 -1.262345 -1.269337 -1.276330 -1.283466 -1.292644 -1.301822 -1.311000 -1.320178 -1.329356 -1.338534 -1.347712 -1.356275 -1.362854 -1.369433 -1.376522 -1.385700 -1.394878 -1.404056 -1.413235 -1.422413 -1.431591 -1.440769 -1.449947 -1.459125 -1.467944 -1.477393 -1.488116 -1.498839 -1.508366 -1.517156 -1.525946 -1.534736 -1.543526 -1.552316 -1.561106 -1.570272 -1.580831 -1.591522 -1.602423 -1.613325 -1.624226 -1.635127 -1.646028 -1.656930 -1.667831 -1.678904 -1.691334 -1.703765 -1.716195 -1.728625 -1.741340 -1.754363 -1.767386 -1.780410 -1.793433 -1.806713 -1.820930 -1.835147 -1.849364 -1.863581 -1.877798 -1.892015 -1.906232 -1.920631 -1.935228 -1.950178 -1.965499 -1.980821 -1.996143 -2.011464 -2.026402 -2.037803 -2.049205 -2.060607 -2.071970 -2.082865 -2.093614 -2.104238 -2.114863 -2.125488 -2.136112 -2.146737 -2.157362 -2.167761 -2.177230 -2.186699 -2.196168 -2.205637 -2.215105 -2.223716 -2.232263 -2.240810 -2.247606 -2.253727 -2.259849 -2.265971 -2.272092 -2.278214 -2.282325 -2.283104 -2.281361 -2.272588 -2.263747 -2.255257 -2.247720 -2.240182 -2.232645 -2.225108 -2.217570 -2.210033 -2.202495 -2.194618 -2.176253 -2.157888 -2.139523 -2.121158 -2.101438 -2.073760 -2.046081 -2.018403 -1.990725 -1.963046 -1.924413 -1.885173 -1.845932 -1.806692 -1.767452 -1.728212 -1.688971 -1.649731
1.658916 1.804507 1.796239 1.787971 1.779703 1.771435 1.748482 1.700215 1.651948 1.603681 1.555414 1.507147 1.458880 1.410613 1.362346 1.314079 1.300000 1.300000 1.300000 1.300000 1.300000 1.300000 1.298554 1.264700 1.230845 1.196991 1.163137 1.129282 1.095334 1.057959 1.020584 0.983209 0.945834 0.908459 0.871084 0.833709 0.796334 0.766252 0.737657 0.709063 0.705548 0.723758 0.741968 0.760178 0.778388 0.796598 0.814808 0.833018 0.851228 0.869438 0.888202 0.844244 0.772905 0.701566 0.630226 0.558887 0.487548 0.415994 0.341835 0.267675 0.193516 0.139737 0.101162 0.049287 -0.002588 -0.054462 -0.106337 -0.158211 -0.210086 -0.261961 -0.313835 -0.366540 -0.437802 -0.508796 -0.577952 -0.647108 -0.716264 -0.785420 -0.854576 -0.923732 -0.992889 -1.062045 -1.112799 -1.160196 -1.207594 -1.240921 -1.255397 -1.269874 -1.284350 -1.298826 -1.313303 -1.327779 -1.341673 -1.355002 -1.368330 -1.381659 -1.394987 -1.402488 -1.399805 -1.397121 -1.394438 -1.391755 -1.389072 -1.386131 -1.383171 -1.380211 -1.377250 -1.390727 -1.408882 -1.427037 -1.445192 -1.463347 -1.481501 -1.499656 -1.500000 -1.500000 -1.500000 -1.500000 -1.500000 -1.500000 -1.500000 -1.500000 -1.500000 -1.500000 -1.500000 -1.522065 -1.563949 -1.605509 -1.647068 -1.688627 -1.730187 -1.771755 -1.813419 -1.855083 -1.896747 -1.938411 -1.961448 -1.954422 -1.946758 -1.939093 -1.931429 -1.923765 -1.916100 -1.908436 -1.900772 -1.893107 -1.885443 -1.879403 -1.873541 -1.867678 -1.793842 -1.716546 -1.639250 -1.561953 -1.484657 -1.407360 -1.330064 -1.258973 -1.232989 -1.207005 -1.181021 -1.155037 -1.131003 -1.139586 -1.148170 -1.156753 -1.165337 -1.173920 -1.182687 -1.192832 -1.202977 -1.213122 -1.223267 -1.233413 -1.243558 -1.253703 -1.260696 -1.267688 -1.274681 -1.281737 -1.290915 -1.300093 -1.309271 -1.318449 -1.327627 -1.336805 -1.345983 -1.355161 -1.364339 -1.371075 -1.377897 -1.387075 -1.396253 -1.405431 -1.414610 -1.423788 -1.432966 -1.442144 -1.451322 -1.459728 -1.467372 -1.475822 -1.484650 -1.493440 -1.502230 -1.511020 -1.519810 -1.528600 -1.537390 -1.546180 -1.554970 -1.563812 -1.574372 -1.584931 -1.595503 -1.606404 -1.617305 -1.628206 -1.639108 -1.650009 -1.660910 -1.671811 -1.684069 -1.696500 -1.708930 -1.721361 -1.733791 -1.746285 -1.759309 -1.772332 -1.785355 -1.798379 -1.812535 -1.826752 -1.840969 -1.855186 -1.869403 -1.883620 -1.897837 -1.912054 -1.926301 -1.941013 -1.956334 -1.971656 -1.984363 -1.995765 -2.007167 -2.018568 -2.029970 -2.041372 -2.052773 -2.063796 -2.074691 -2.085557 -2.096181 -2.106806 -2.117431 -2.128055 -2.138680 -2.149305 -2.159028 -2.168497 -2.177966 -2.187435 -2.196903 -2.206372 -2.215407 -2.223954 -2.232012 -2.238134 -2.244255 -2.250377 -2.256499 -2.258805 -2.259585 -2.260364 -2.260273 -2.257895 -2.252209 -2.243368 -2.234527 -2.225686 -2.216845 -2.208005 -2.199924 -2.192386 -2.184849 -2.177311 -2.169774 -2.156335 -2.137970 -2.119605 -2.096053 -2.068375 -2.040696 -2.013018 -1.985339 -1.957661 -1.929983 -1.897120 -1.857880 -1.818640 -1.779400 -1.740159 -1.700919 -1.661679 -1.622439
1.581960 1.681760 1.673492 1.665224 1.656956 1.648688 1.640420 1.632152 1.623884 1.594473 1.546206 1.497939 1.449672 1.401405 1.353138 1.304871 1.300000 1.300000 1.300000 1.300000 1.300000 1.300000 1.300000 1.300000 1.300000 1.281854 1.248000 1.214146 1.179680 1.142305 1.104930 1.067555 1.030180 0.992805 0.955430 0.918055 0.880680 0.843305 0.805930 0.773593 0.775087 0.793297 0.811507 0.829717 0.847927 0.865387 0.882414 0.899441 0.916468 0.933494 0.950521 0.887705 0.813402 0.739243 0.665084 0.590924 0.516765 0.442606 0.368446 0.294287 0.220128 0.169373 0.171535 0.166245 0.114370 0.062495 0.010621 -0.041254 -0.093129 -0.145003 -0.196878 -0.249483 -0.320745 -0.392006 -0.463268 -0.533510 -0.602666 -0.671822 -0.740978 -0.810134 -0.879290 -0.948446 -1.000101 -1.047499 -1.094897 -1.142295 -1.189692 -1.213368 -1.227844 -1.242320 -1.256797 -1.271273 -1.285252 -1.298580 -1.311908 -1.325237 -1.338565 -1.351894 -1.365222 -1.369533 -1.366849 -1.364166 -1.361483 -1.358570 -1.355609 -1.352649 -1.370410 -1.388564 -1.406719 -1.424874 -1.443029 -1.461183 -1.479338 -1.497493 -1.500000 -1.500000 -1.500000 -1.500000 -1.500000 -1.500000 -1.500000 -1.500000 -1.500000 -1.500000 -1.500000 -1.515768 -1.557432 -1.599096 -1.640761 -1.682425 -1.724089 -1.765753 -1.807417 -1.849081 -1.890745 -1.904438 -1.898053 -1.891251 -1.883587 -1.875923 -1.868258 -1.860594 -1.852930 -1.845265 -1.837601 -1.830076 -1.824214 -1.818351 -1.812489 -1.806626 -1.747795 -1.670499 -1.593202 -1.515906 -1.438609 -1.361313 -1.296249 -1.270265 -1.244281 -1.218297 -1.192313 -1.166330 -1.140346 -1.142440 -1.151024 -1.159607 -1.168191 -1.177018 -1.187163 -1.197308 -1.207453 -1.217598 -1.227744 -1.237889 -1.248034 -1.258179 -1.266040 -1.273032 -1.280024 -1.289187 -1.298364 -1.307542 -1.316720 -1.325898 -1.335076 -1.344254 -1.353432 -1.362610 -1.371788 -1.379296 -1.388450 -1.397628 -1.406806 -1.414514 -1.422158 -1.429802 -1.437446 -1.445090 -1.452734 -1.460378 -1.468580 -1.478201 -1.487303 -1.496093 -1.504883 -1.513673 -1.522463 -1.531253 -1.540043 -1.548833 -1.557623 -1.567912 -1.578472 -1.589031 -1.599590 -1.610384 -1.621286 -1.632187 -1.643088 -1.653990 -1.664891 -1.676805 -1.689235 -1.701665 -1.714096 -1.726526 -1.738957 -1.751387 -1.764254 -1.777278 -1.790301 -1.804141 -1.818358 -1.832575 -1.846792 -1.861009 -1.875226 -1.889443 -1.903659 -1.917876 -1.931084 -1.942325 -1.953727 -1.965128 -1.976530 -1.987932 -1.999333 -2.010735 -2.022137 -2.033538 -2.044727 -2.055622 -2.066516 -2.077411 -2.088124 -2.098749 -2.109374 -2.119998 -2.130623 -2.140826 -2.150295 -2.159764 -2.169233 -2.178702 -2.188170 -2.197639 -2.207098 -2.215645 -2.222540 -2.228662 -2.234506 -2.235286 -2.236065 -2.236844 -2.237624 -2.238403 -2.236807 -2.234429 -2.231829 -2.222989 -2.214148 -2.205307 -2.196466 -2.187625 -2.178785 -2.169944 -2.161103 -2.152262 -2.144590 -2.136418 -2.118053 -2.090668 -2.062989 -2.035311 -2.007633 -1.979954 -1.952276 -1.924597 -1.896919 -1.869241 -1.830588 -1.791348 -1.752107 -1.712867 -1.673627 -1.633955 -1.590962
1.505004 1.559013 1.550745 1.542477 1.534209 1.525941 1.517673 1.509405 1.501137 1.492870 1.484602 1.476334 1.440463 1.392196 1.343929 1.300000 1.300000 1.300000 1.300000 1.300000 1.300000 1.300000 1.300000 1.300000 1.300000 1.300000 1.300000 1.299009 1.264026 1.226651 1.189276 1.151901 1.113666 1.075202 1.036738 0.998275 0.959811 0.921347 0.882883 0.844419 0.838767 0.851645 0.868672 0.885698 0.902725 0.919752 0.936779 0.953806 0.970833 0.987860 1.004886 0.933240 0.847475 0.765855 0.691696 0.617536 0.543377 0.469218 0.395058 0.320899 0.246740 0.199009 0.201171 0.203334 0.205496 0.179453 0.127578 0.075704 0.023829 -0.028046 -0.079920 -0.132426 -0.203688 -0.274949 -0.346211 -0.417473 -0.488735 -0.558224 -0.627380 -0.696536 -0.765692 -0.834848 -0.887404 -0.934802 -0.982200 -1.029597 -1.076995 -1.124393 -1.171338 -1.185814 -1.200290 -1.214767 -1.228830 -1.242158 -1.255487 -1.268815 -1.282144 -1.295472 -1.308800 -1.322129 -1.335457 -1.336577 -1.333894 -1.331008 -1.331937 -1.350092 -1.368246 -1.386401 -1.404556 -1.422711 -1.440866 -1.459020 -1.477175 -1.495330 -1.500000 -1.500000 -1.500000 -1.500000 -1.500000 -1.500000 -1.500000 -1.500000 -1.500000 -1.500000 -1.500000 -1.509767 -1.551431 -1.593095 -1.634759 -1.676423 -1.718087 -1.759751 -1.801415 -1.843080 -1.847428 -1.841043 -1.834658 -1.828081 -1.820417 -1.812752 -1.805088 -1.797424 -1.789759 -1.782095 -1.774887 -1.769024 -1.763162 -1.757299 -1.751436 -1.745574 -1.701748 -1.624451 -1.547155 -1.469859 -1.392562 -1.333525 -1.307541 -1.281557 -1.255574 -1.229590 -1.203606 -1.177622 -1.151638 -1.145294 -1.153878 -1.162461 -1.171349 -1.181494 -1.191639 -1.201784 -1.211929 -1.222074 -1.232220 -1.242365 -1.252510 -1.262655 -1.271383 -1.278375 -1.287458 -1.296636 -1.305813 -1.314991 -1.324169 -1.333347 -1.342525 -1.351703 -1.359700 -1.367621 -1.375542 -1.384588 -1.392232 -1.399876 -1.407520 -1.415164 -1.422808 -1.430452 -1.438096 -1.445740 -1.453384 -1.461337 -1.470958 -1.480579 -1.489956 -1.498746 -1.507536 -1.516326 -1.525116 -1.533906 -1.542696 -1.551486 -1.561452 -1.572012 -1.582571 -1.593131 -1.603690 -1.614365 -1.625266 -1.636168 -1.647069 -1.657970 -1.669540 -1.681970 -1.694401 -1.706831 -1.719261 -1.731692 -1.744122 -1.756553 -1.769200 -1.782223 -1.795746 -1.809963 -1.824180 -1.838397 -1.852614 -1.866831 -1.879627 -1.890632 -1.901637 -1.912641 -1.923528 -1.934492 -1.945893 -1.957295 -1.968697 -1.980098 -1.991500 -2.002902 -2.014303 -2.025658 -2.036553 -2.047447 -2.058342 -2.069237 -2.080067 -2.090692 -2.101317 -2.111941 -2.122566 -2.132093 -2.141562 -2.151031 -2.160500 -2.169968 -2.179437 -2.188906 -2.198375 -2.206946 -2.210986 -2.211766 -2.212545 -2.213325 -2.214104 -2.214884 -2.215663 -2.215718 -2.213340 -2.210963 -2.208585 -2.202609 -2.193769 -2.184928 -2.176087 -2.167246 -2.158405 -2.149565 -2.140724 -2.131883 -2.123042 -2.110052 -2.086392 -2.057604 -2.029926 -2.002247 -1.974569 -1.946891 -1.919212 -1.891534 -1.863855 -1.836177 -1.803295 -1.764055 -1.724815 -1.685575 -1.645187 -1.602194 -1.559201
1.428047 1.436266 1.427998 1.419730 1.411462 1.403194 1.394926 1.386658 1.378391 1.370123 1.361855 1.353587 1.345319 1.337051 1.328783 1.300000 1.300000 1.300000 1.305024 1.312562 1.320100 1.327638 1.335176 1.342714 1.350252 1.357790 1.365327 1.372865 1.351618 1.298844 1.260380 1.221916 1.183452 1.144988 1.106524 1.068061 1.029597 0.991133 0.952669 0.914205 0.913916 0.918609 0.923302 0.940064 0.957090 0.974117 0.991144 1.008171 1.025198 1.042225 1.059252 0.978774 0.893009 0.807245 0.721480 0.644148 0.569989 0.495830 0.421670 0.347511 0.273352 0.228645 0.230807 0.232970 0.235132 0.237294 0.239457 0.192661 0.140786 0.088912 0.037037 -0.015369 -0.086631 -0.157892 -0.229154 -0.300416 -0.371678 -0.442939 -0.513782 -0.582938 -0.652094 -0.721250 -0.774707 -0.822105 -0.869502 -0.916900 -0.964298 -1.011696 -1.059094 -1.106491 -1.143784 -1.158261 -1.172408 -1.185737 -1.199065 -1.212393 -1.225722 -1.239050 -1.252379 -1.265707 -1.279035 -1.292364 -1.305692 -1.311619 -1.329774 -1.345594 -1.360985 -1.376377 -1.391768 -1.407159 -1.422550 -1.437941 -1.453333 -1.486196 -1.500000 -1.500000 -1.500000 -1.500000 -1.500000 -1.500000 -1.500000 -1.500000 -1.500000 -1.500000 -1.500000 -1.503765 -1.545429 -1.587093 -1.628757 -1.670421 -1.712086 -1.753750 -1.795414 -1.790418 -1.784033 -1.777647 -1.771262 -1.764877 -1.757246 -1.749582 -1.741918 -1.734253 -1.726589 -1.719697 -1.713835 -1.707972 -1.702109 -1.696247 -1.690384 -1.684522 -1.655701 -1.578404 -1.501108 -1.423811 -1.370801 -1.344818 -1.318834 -1.292850 -1.266866 -1.240882 -1.214898 -1.188914 -1.162930 -1.148148 -1.156732 -1.165679 -1.175825 -1.185970 -1.196115 -1.206260 -1.216405 -1.226551 -1.236696 -1.246841 -1.256986 -1.267131 -1.276727 -1.285729 -1.294214 -1.302135 -1.310056 -1.317977 -1.325898 -1.333819 -1.341740 -1.349661 -1.357582 -1.365503 -1.375248 -1.385237 -1.392881 -1.400525 -1.408169 -1.415813 -1.423457 -1.431101 -1.438745 -1.446389 -1.454095 -1.463716 -1.473337 -1.482957 -1.492578 -1.501400 -1.510190 -1.518980 -1.527770 -1.536560 -1.545350 -1.554993 -1.565552 -1.576112 -1.586671 -1.597231 -1.607790 -1.618350 -1.629247 -1.640148 -1.651050 -1.662275 -1.674706 -1.687136 -1.699566 -1.711997 -1.724427 -1.736857 -1.749288 -1.761718 -1.774149 -1.787351 -1.801568 -1.815785 -1.828171 -1.839175 -1.850180 -1.861184 -1.872189 -1.883194 -1.894198 -1.905140 -1.915939 -1.926737 -1.938060 -1.949462 -1.960863 -1.972265 -1.983667 -1.995068 -2.006470 -2.017484 -2.028379 -2.039273 -2.050168 -2.061063 -2.071958 -2.082635 -2.093260 -2.103884 -2.113891 -2.123360 -2.132829 -2.142298 -2.151767 -2.161235 -2.170704 -2.179893 -2.184925 -2.188246 -2.189026 -2.189805 -2.190585 -2.191364 -2.192143 -2.192923 -2.193702 -2.192252 -2.189874 -2.187496 -2.185119 -2.182230 -2.173389 -2.164548 -2.155708 -2.146867 -2.138026 -2.129185 -2.120345 -2.109328 -2.092574 -2.075821 -2.058121 -2.029249 -2.000376 -1.971504 -1.942632 -1.913827 -1.886149 -1.858470 -1.830792 -1.803113 -1.775435 -1.736763 -1.697523 -1.656419 -1.613426 -1.570433 -1.527440
1.321787 1.313519 1.305251 1.302653 1.309926 1.317198 1.324470 1.331742 1.339014 1.346286 1.353558 1.360830 1.368102 1.375374 1.382646 1.389628 1.396269 1.403481 1.411019 1.418557 1.426095 1.433632 1.441170 1.448708 1.456246 1.463784 1.471322 1.478860 1.448170 1.394954 1.341737 1.291702 1.253238 1.214774 1.176311 1.137847 1.099383 1.060919 1.022455 0.984371 0.989064 0.993757 0.998450 1.003143 1.011456 1.028482 1.045509 1.062536 1.079563 1.096590 1.110073 1.024308 0.938544 0.852779 0.767015 0.681250 0.596601 0.522442 0.448282 0.374123 0.299964 0.258281 0.260444 0.262606 0.264768 0.266931 0.269093 0.271255 0.257744 0.205869 0.153995 0.101688 0.030426 -0.040835 -0.112097 -0.183359 -0.254621 -0.325882 -0.397144 -0.468406 -0.538496 -0.607652 -0.662010 -0.709408 -0.756805 -0.804203 -0.851601 -0.898999 -0.946396 -0.993794 -1.041192 -1.088590 -1.115987 -1.129315 -1.142643 -1.158220 -1.174373 -1.190526 -1.206679 -1.222832 -1.238985 -1.255138 -1.271291 -1.287043 -1.302434 -1.317826 -1.333217 -1.348608 -1.363999 -1.379390 -1.394782 -1.410173 -1.445702 -1.481630 -1.500000 -1.500000 -1.500000 -1.500000 -1.500000 -1.500000 -1.500000 -1.500000 -1.500000 -1.500000 -1.500000 -1.500000 -1.539427 -1.581091 -1.622756 -1.664420 -1.706084 -1.739793 -1.733408 -1.727022 -1.720637 -1.714252 -1.707867 -1.701482 -1.694076 -1.686412 -1.678747 -1.671083 -1.664508 -1.658645 -1.652782 -1.646920 -1.641057 -1.635195 -1.629332 -1.623469 -1.609653 -1.532357 -1.455061 -1.408078 -1.382094 -1.356110 -1.330126 -1.304142 -1.278158 -1.252174 -1.226190 -1.200206 -1.174223 -1.151002 -1.160010 -1.170156 -1.180301 -1.190446 -1.200591 -1.210454 -1.219513 -1.228573 -1.237633 -1.246693 -1.255753 -1.264813 -1.275878 -1.284175 -1.292096 -1.300017 -1.307938 -1.315859 -1.323781 -1.331702 -1.339623 -1.347544 -1.355465 -1.365101 -1.375143 -1.385185 -1.393531 -1.401175 -1.408819 -1.416463 -1.424107 -1.431751 -1.439395 -1.447039 -1.456473 -1.466094 -1.475715 -1.485336 -1.494956 -1.504053 -1.512843 -1.521633 -1.530423 -1.539213 -1.548533 -1.559093 -1.569652 -1.580212 -1.590771 -1.601331 -1.611890 -1.622450 -1.633228 -1.644129 -1.655030 -1.667441 -1.679871 -1.692302 -1.704732 -1.717162 -1.729593 -1.742023 -1.754454 -1.766884 -1.777158 -1.787718 -1.798723 -1.809728 -1.820732 -1.831737 -1.842741 -1.853746 -1.864751 -1.875755 -1.886752 -1.897550 -1.908349 -1.919148 -1.930226 -1.941628 -1.953030 -1.964431 -1.975833 -1.987235 -1.998415 -2.009310 -2.020204 -2.031099 -2.041994 -2.052889 -2.063784 -2.074578 -2.085203 -2.095689 -2.105158 -2.114627 -2.124096 -2.133565 -2.143033 -2.148178 -2.153209 -2.158241 -2.162637 -2.165519 -2.167065 -2.167844 -2.168624 -2.169403 -2.170183 -2.170962 -2.171163 -2.168786 -2.166408 -2.164030 -2.161652 -2.159275 -2.153010 -2.144169 -2.135328 -2.126488 -2.117647 -2.108603 -2.091850 -2.075097 -2.058343 -2.041590 -2.024837 -2.000978 -1.972106 -1.943233 -1.914361 -1.885489 -1.856617 -1.827744 -1.798872 -1.770050 -1.742371 -1.709470 -1.667651 -1.624658 -1.581665 -1.538672 -1.495679
1.191793 1.307751 1.403344 1.410616 1.417888 1.425160 1.432432 1.439704 1.446976 1.454249 1.461521 1.468793 1.476065 1.483337 1.490609 1.497478 1.504119 1.510761 1.517402 1.524551 1.532089 1.539627 1.547165 1.554702 1.562240 1.569778 1.577316 1.584854 1.544723 1.491506 1.438289 1.385072 1.331856 1.284561 1.246097 1.207633 1.169169 1.130705 1.092241 1.059519 1.064212 1.068905 1.073598 1.078291 1.082984 1.087677 1.099874 1.116901 1.133928 1.150955 1.155607 1.069843 0.984078 0.898313 0.812549 0.726784 0.641020 0.555255 0.474894 0.400735 0.326576 0.287917 0.290080 0.292242 0.294404 0.296567 0.298729 0.300891 0.303054 0.305216 0.270952 0.218745 0.147483 0.076222 0.004960 -0.066302 -0.137564 -0.208825 -0.280087 -0.351349 -0.422611 -0.493873 -0.549313 -0.596710 -0.646114 -0.696330 -0.746545 -0.796761 -0.846977 -0.897192 -0.947408 -0.997623 -1.047437 -1.094362 -1.114212 -1.130365 -1.146518 -1.162671 -1.178824 -1.194977 -1.211130 -1.227283 -1.243436 -1.259275 -1.274666 -1.290057 -1.305448 -1.320839 -1.336230 -1.351622 -1.369280 -1.405208 -1.441135 -1.477063 -1.500000 -1.500000 -1.500000 -1.500000 -1.500000 -1.500000 -1.500000 -1.500000 -1.500000 -1.500000 -1.500000 -1.500000 -1.533426 -1.575090 -1.616754 -1.658418 -1.682782 -1.676397 -1.670012 -1.663627 -1.657242 -1.650857 -1.644472 -1.638086 -1.630905 -1.623241 -1.615577 -1.609318 -1.603455 -1.597593 -1.591730 -1.585868 -1.580005 -1.574142 -1.568280 -1.562417 -1.556555 -1.486310 -1.445354 -1.419370 -1.393386 -1.367402 -1.341418 -1.315434 -1.289450 -1.263467 -1.232554 -1.199048 -1.165541 -1.149500 -1.159870 -1.168930 -1.177990 -1.187049 -1.196109 -1.205169 -1.214229 -1.223289 -1.232349 -1.241409 -1.250469 -1.261633 -1.272806 -1.282058 -1.289979 -1.297900 -1.305821 -1.313742 -1.321663 -1.329584 -1.337505 -1.345426 -1.354953 -1.364995 -1.375037 -1.385080 -1.394181 -1.401825 -1.409469 -1.417113 -1.424757 -1.432401 -1.440045 -1.449231 -1.458852 -1.468472 -1.478093 -1.487714 -1.497335 -1.506707 -1.515497 -1.524287 -1.533077 -1.542074 -1.552633 -1.563193 -1.573752 -1.584311 -1.594871 -1.605430 -1.615990 -1.626549 -1.637208 -1.648110 -1.660176 -1.672606 -1.685037 -1.697467 -1.709898 -1.721069 -1.730884 -1.740699 -1.750514 -1.760329 -1.770158 -1.780280 -1.791285 -1.802289 -1.813294 -1.824298 -1.835303 -1.846308 -1.857312 -1.868317 -1.879162 -1.889961 -1.900760 -1.911558 -1.922393 -1.933795 -1.945196 -1.956598 -1.968000 -1.979346 -1.990241 -2.001136 -2.012030 -2.022925 -2.033820 -2.044715 -2.055610 -2.066504 -2.077146 -2.086956 -2.096425 -2.105894 -2.111431 -2.116462 -2.121494 -2.126525 -2.131556 -2.136588 -2.139715 -2.142597 -2.145104 -2.145884 -2.146663 -2.147443 -2.148222 -2.149001 -2.147697 -2.145319 -2.142942 -2.140564 -2.138186 -2.135808 -2.132631 -2.123790 -2.114949 -2.106108 -2.091125 -2.074372 -2.057619 -2.040865 -2.024112 -2.007359 -1.990605 -1.972707 -1.943835 -1.914963 -1.886090 -1.857218 -1.828346 -1.799474 -1.770601 -1.741729 -1.712857 -1.679317 -1.636386 -1.592925 -1.549904 -1.506911 -1.463918
1.032030 1.147988 1.263946 1.379903 1.495861 1.533123 1.540395 1.547667 1.554939 1.562211 1.569483 1.576755 1.584027 1.591299 1.598571 1.605328 1.611970 1.618611 1.625253 1.631894 1.638536 1.645621 1.653159 1.660697 1.668235 1.675773 1.683310 1.690848 1.641275 1.588058 1.534842 1.481625 1.428408 1.375191 1.321974 1.277419 1.238955 1.200491 1.162027 1.134668 1.139361 1.144054 1.148747 1.153440 1.158132 1.162825 1.167518 1.172211 1.188293 1.205320 1.201141 1.115377 1.029612 0.943848 0.858083 0.772319 0.686554 0.600790 0.515025 0.429261 0.353187 0.317554 0.319716 0.321878 0.324041 0.326203 0.328365 0.330528 0.332690 0.334852 0.337015 0.335802 0.261838 0.186511 0.111184 0.035858 -0.039469 -0.114796 -0.190123 -0.265449 -0.340776 -0.416103 -0.471398 -0.514664 -0.564880 -0.615095 -0.665311 -0.715527 -0.765742 -0.815958 -0.866174 -0.916389 -0.966518 -1.013443 -1.060368 -1.102510 -1.118663 -1.134816 -1.150969 -1.167122 -1.183275 -1.199428 -1.215581 -1.231506 -1.246897 -1.262288 -1.277679 -1.293071 -1.308462 -1.328786 -1.364714 -1.400641 -1.436569 -1.472496 -1.500000 -1.500000 -1.500000 -1.500000 -1.500000 -1.500000 -1.500000 -1.500000 -1.500000 -1.500000 -1.500000 -1.500000 -1.527424 -1.569088 -1.610752 -1.625772 -1.619387 -1.613002 -1.606617 -1.600232 -1.593847 -1.587461 -1.581076 -1.574691 -1.567735 -1.560071 -1.554128 -1.548266 -1.542403 -1.536541 -1.530678 -1.524815 -1.518953 -1.513090 -1.507228 -1.501365 -1.500000 -1.469592 -1.436086 -1.402579 -1.369073 -1.335566 -1.302060 -1.268554 -1.235047 -1.201541 -1.168034 -1.134528 -1.125467 -1.142210 -1.154585 -1.163645 -1.172705 -1.181765 -1.190825 -1.199885 -1.208945 -1.218005 -1.227064 -1.236214 -1.247387 -1.258560 -1.269733 -1.279940 -1.287861 -1.295782 -1.303703 -1.311625 -1.319546 -1.327467 -1.335388 -1.344805 -1.354847 -1.364889 -1.374932 -1.384974 -1.394830 -1.402474 -1.410118 -1.417762 -1.425407 -1.433051 -1.441988 -1.451609 -1.461230 -1.470851 -1.480472 -1.490092 -1.499713 -1.509334 -1.518150 -1.526940 -1.535730 -1.546173 -1.556733 -1.567292 -1.577852 -1.588411 -1.598971 -1.609530 -1.620090 -1.630649 -1.641209 -1.652911 -1.664981 -1.674796 -1.684611 -1.694426 -1.704241 -1.714056 -1.723871 -1.733686 -1.743501 -1.753325 -1.763160 -1.772996 -1.783846 -1.794851 -1.805855 -1.816860 -1.827865 -1.838869 -1.849874 -1.860774 -1.871573 -1.882372 -1.893170 -1.903969 -1.914767 -1.925961 -1.937363 -1.948765 -1.960166 -1.971172 -1.982067 -1.992961 -2.003856 -2.014751 -2.025646 -2.036541 -2.047435 -2.058330 -2.068754 -2.074684 -2.079715 -2.084747 -2.089778 -2.094809 -2.099841 -2.104872 -2.109904 -2.113912 -2.116793 -2.119675 -2.122557 -2.123923 -2.124702 -2.125482 -2.126261 -2.126609 -2.124231 -2.121853 -2.119475 -2.117098 -2.114720 -2.112342 -2.109964 -2.103411 -2.090401 -2.073647 -2.056894 -2.040141 -2.023387 -2.006634 -1.989881 -1.973127 -1.956374 -1.939621 -1.915564 -1.886692 -1.857820 -1.828947 -1.800075 -1.771203 -1.742331 -1.711762 -1.678125 -1.644488 -1.606578 -1.563116 -1.519655 -1.476194 -1.432733
0.872267 0.988225 1.104183 1.220140 1.336098 1.452056 1.568013 1.655630 1.662902 1.670174 1.677446 1.684718 1.691990 1.699262 1.706534 1.713179 1.719820 1.726462 1.733103 1.739745 1.746386 1.753027 1.759669 1.766691 1.774229 1.781767 1.789305 1.791045 1.737828 1.684611 1.631394 1.578177 1.524960 1.471744 1.418527 1.365310 1.312093 1.270277 1.231813 1.209816 1.214509 1.219202 1.223895 1.228588 1.233281 1.237974 1.242667 1.247360 1.252053 1.259685 1.246676 1.160911 1.075147 0.989382 0.903617 0.817853 0.732088 0.646324 0.560404 0.474338 0.388273 0.356859 0.361930 0.367000 0.372071 0.377142 0.382212 0.387283 0.392353 0.397424 0.402494 0.407565 0.330792 0.254315 0.178988 0.103661 0.028334 -0.046992 -0.122319 -0.197646 -0.272973 -0.348299 -0.406044 -0.446444 -0.486843 -0.533861 -0.584077 -0.634293 -0.684508 -0.734724 -0.784939 -0.835155 -0.885371 -0.932524 -0.979449 -1.026374 -1.073298 -1.106961 -1.123114 -1.139267 -1.155420 -1.171573 -1.187726 -1.203737 -1.219128 -1.234520 -1.249911 -1.265302 -1.288292 -1.324219 -1.360147 -1.396075 -1.432002 -1.467930 -1.500000 -1.500000 -1.500000 -1.500000 -1.500000 -1.500000 -1.500000 -1.500000 -1.500000 -1.500000 -1.500000 -1.500000 -1.521422 -1.563086 -1.568762 -1.562377 -1.555992 -1.549607 -1.543222 -1.536836 -1.530451 -1.524066 -1.517681 -1.511296 -1.504801 -1.500000 -1.500000 -1.500000 -1.500000 -1.500000 -1.500000 -1.500000 -1.500000 -1.500000 -1.500000 -1.498452 -1.447710 -1.405072 -1.371566 -1.338060 -1.304553 -1.271047 -1.237540 -1.204034 -1.170527 -1.137021 -1.103515 -1.101433 -1.118176 -1.134920 -1.149301 -1.158361 -1.167421 -1.176481 -1.185540 -1.194600 -1.203660 -1.212720 -1.221968 -1.233141 -1.244314 -1.255487 -1.266660 -1.277823 -1.285744 -1.293665 -1.301586 -1.309507 -1.317428 -1.325349 -1.334657 -1.344699 -1.354742 -1.364784 -1.374826 -1.384869 -1.394911 -1.403124 -1.410768 -1.418412 -1.426056 -1.434746 -1.444367 -1.453987 -1.463608 -1.473229 -1.482850 -1.492471 -1.502092 -1.511712 -1.520804 -1.529594 -1.539714 -1.550273 -1.560833 -1.571392 -1.581952 -1.592511 -1.603071 -1.613096 -1.621589 -1.630081 -1.638711 -1.648152 -1.657967 -1.667782 -1.677597 -1.687412 -1.697227 -1.707042 -1.716857 -1.726672 -1.736492 -1.746327 -1.756162 -1.765998 -1.776408 -1.787412 -1.798417 -1.809422 -1.820426 -1.831431 -1.842386 -1.853185 -1.863983 -1.874782 -1.885581 -1.896379 -1.907178 -1.918128 -1.929530 -1.940931 -1.952103 -1.962998 -1.973892 -1.984787 -1.995682 -2.006577 -2.017472 -2.027794 -2.035070 -2.042346 -2.048000 -2.053031 -2.058062 -2.063094 -2.068125 -2.073157 -2.078188 -2.083219 -2.088108 -2.090990 -2.093872 -2.096753 -2.099635 -2.101962 -2.102742 -2.103521 -2.104301 -2.103142 -2.100764 -2.098387 -2.096009 -2.093631 -2.091253 -2.088876 -2.084432 -2.074602 -2.056705 -2.039416 -2.022663 -2.005909 -1.989156 -1.972403 -1.955649 -1.938896 -1.922143 -1.905389 -1.887294 -1.858421 -1.829549 -1.800677 -1.771804 -1.742932 -1.710570 -1.676933 -1.643296 -1.609660 -1.576023 -1.533308 -1.489847 -1.446386 -1.402925
0.712505 0.828462 0.944420 1.060378 1.176335 1.292293 1.408251 1.524208 1.640166 1.756123 1.785408 1.792680 1.799952 1.807225 1.814388 1.821029 1.827670 1.834312 1.840953 1.847595 1.854236 1.860878 1.867519 1.874161 1.880802 1.887761 1.895299 1.887597 1.834380 1.781163 1.727947 1.674730 1.621513 1.568296 1.515079 1.461862 1.408646 1.355429 1.302212 1.284964 1.289657 1.294350 1.299043 1.304445 1.310029 1.315613 1.321196 1.326780 1.332364 1.337948 1.298961 1.203989 1.117923 1.031857 0.945792 0.859726 0.773660 0.687595 0.601529 0.515463 0.429398 0.405243 0.427384 0.436495 0.441566 0.446637 0.451707 0.456778 0.461848 0.466919 0.471989 0.477060 0.402296 0.324554 0.246813 0.171465 0.096138 0.020811 -0.054515 -0.129842 -0.205169 -0.280496 -0.340691 -0.381090 -0.421489 -0.461888 -0.502843 -0.553058 -0.603274 -0.653490 -0.703705 -0.753921 -0.804137 -0.851605 -0.898530 -0.945455 -0.992379 -1.039304 -1.086229 -1.111413 -1.127566 -1.143718 -1.159871 -1.175968 -1.191360 -1.206751 -1.222142 -1.247797 -1.283725 -1.319653 -1.355580 -1.391508 -1.427436 -1.463363 -1.499291 -1.500000 -1.500000 -1.500000 -1.500000 -1.500000 -1.500000 -1.500000 -1.500000 -1.500000 -1.500000 -1.500000 -1.515421 -1.511752 -1.505367 -1.500000 -1.500000 -1.500000 -1.500000 -1.500000 -1.500000 -1.500000 -1.500000 -1.500000 -1.500000 -1.500000 -1.500000 -1.500000 -1.500000 -1.500000 -1.500000 -1.500000 -1.500000 -1.500000 -1.488466 -1.437724 -1.386983 -1.340553 -1.307046 -1.273540 -1.240033 -1.206527 -1.173021 -1.139514 -1.106008 -1.072501 -1.077399 -1.094143 -1.110886 -1.127630 -1.144017 -1.153076 -1.162136 -1.171196 -1.180256 -1.189316 -1.198376 -1.207722 -1.218895 -1.230068 -1.241241 -1.252414 -1.263588 -1.274761 -1.283626 -1.291548 -1.299469 -1.307390 -1.315311 -1.324509 -1.334551 -1.344594 -1.354636 -1.364678 -1.374721 -1.384763 -1.394806 -1.403774 -1.411418 -1.419062 -1.427503 -1.437124 -1.446745 -1.456366 -1.465987 -1.475607 -1.485228 -1.494849 -1.504470 -1.514091 -1.523457 -1.533254 -1.543814 -1.554373 -1.563610 -1.572102 -1.580595 -1.589087 -1.597580 -1.606072 -1.614565 -1.623119 -1.632020 -1.641139 -1.650954 -1.660769 -1.670584 -1.680399 -1.690214 -1.700029 -1.709844 -1.719659 -1.729494 -1.739329 -1.749164 -1.759000 -1.768969 -1.779974 -1.790979 -1.801983 -1.812988 -1.823992 -1.834797 -1.845595 -1.856394 -1.867193 -1.877991 -1.888790 -1.899588 -1.910387 -1.921696 -1.933034 -1.943929 -1.954824 -1.965718 -1.976613 -1.985196 -1.992471 -1.999747 -2.007023 -2.014298 -2.020527 -2.026139 -2.031378 -2.036410 -2.041441 -2.046472 -2.051504 -2.056535 -2.061567 -2.065187 -2.068068 -2.070950 -2.073832 -2.076713 -2.079595 -2.080781 -2.081560 -2.082054 -2.079676 -2.077298 -2.074920 -2.072543 -2.070165 -2.064636 -2.058461 -2.051872 -2.042151 -2.026782 -2.008884 -1.990986 -1.973088 -1.955191 -1.938171 -1.921418 -1.904665 -1.887911 -1.871158 -1.854405 -1.830151 -1.801278 -1.772406 -1.743015 -1.709378 -1.675741 -1.642105 -1.608468 -1.574831 -1.541194 -1.503500 -1.460039 -1.416578 -1.373117
0.552742 0.668700 0.784657 0.900615 1.016572 1.132530 1.248488 1.364445 1.480403 1.596361 1.712318 1.828276 1.907915 1.915187 1.922238 1.928879 1.935521 1.942162 1.948804 1.955445 1.962087 1.968728 1.975370 1.982011 1.988653 1.995294 2.000000 1.983161 1.929193 1.875224 1.821256 1.767288 1.713319 1.659351 1.605382 1.551414 1.497446 1.443477 1.389509 1.372451 1.377106 1.382690 1.388273 1.393857 1.399441 1.405025 1.410608 1.416192 1.421776 1.427360 1.378322 1.265927 1.159048 1.072982 0.986916 0.900851 0.814785 0.728719 0.642654 0.556588 0.470522 0.449589 0.471730 0.493871 0.511061 0.516132 0.521202 0.526273 0.531343 0.536414 0.541484 0.546555 0.473800 0.396059 0.318317 0.240575 0.163942 0.088615 0.013288 -0.062039 -0.137365 -0.212692 -0.275337 -0.315736 -0.356135 -0.396534 -0.436933 -0.477332 -0.522040 -0.572255 -0.622471 -0.672687 -0.722902 -0.770686 -0.817611 -0.864536 -0.911461 -0.958385 -1.005310 -1.052235 -1.099160 -1.115864 -1.132017 -1.148170 -1.163591 -1.178982 -1.207303 -1.243231 -1.279158 -1.315086 -1.351014 -1.386941 -1.422869 -1.458797 -1.494724 -1.500000 -1.500000 -1.500000 -1.500000 -1.500000 -1.500000 -1.500000 -1.500000 -1.500000 -1.500000 -1.500000 -1.500000 -1.500000 -1.500000 -1.500000 -1.500000 -1.500000 -1.500000 -1.500000 -1.500000 -1.500000 -1.500000 -1.500000 -1.500000 -1.500000 -1.500000 -1.500000 -1.500000 -1.500000 -1.500000 -1.500000 -1.500000 -1.478480 -1.427739 -1.376997 -1.326255 -1.276033 -1.242527 -1.209020 -1.175514 -1.142007 -1.108501 -1.074994 -1.041488 -1.053366 -1.070109 -1.086852 -1.103596 -1.120339 -1.137083 -1.147792 -1.156852 -1.165912 -1.174972 -1.184032 -1.193476 -1.204649 -1.215822 -1.226996 -1.238169 -1.249342 -1.260515 -1.271688 -1.281509 -1.289430 -1.297351 -1.305272 -1.314361 -1.324403 -1.334446 -1.344488 -1.354531 -1.364573 -1.374615 -1.384658 -1.394700 -1.404424 -1.412068 -1.420261 -1.429882 -1.439502 -1.449123 -1.458744 -1.468365 -1.477986 -1.487607 -1.497227 -1.506149 -1.514172 -1.522602 -1.531108 -1.539601 -1.548093 -1.556586 -1.565078 -1.573571 -1.582063 -1.590556 -1.599048 -1.607541 -1.616428 -1.625329 -1.634230 -1.643940 -1.653755 -1.663570 -1.673385 -1.683200 -1.693015 -1.702830 -1.712660 -1.722496 -1.732331 -1.742167 -1.752002 -1.761837 -1.772536 -1.783540 -1.794545 -1.805549 -1.816409 -1.827207 -1.838006 -1.848804 -1.859603 -1.870402 -1.881200 -1.891999 -1.902798 -1.913863 -1.924860 -1.935322 -1.942597 -1.949873 -1.957149 -1.964424 -1.971700 -1.978975 -1.986251 -1.993012 -1.998624 -2.004236 -2.009726 -2.014757 -2.019788 -2.024820 -2.029851 -2.034883 -2.039383 -2.042265 -2.045147 -2.048028 -2.050910 -2.053792 -2.056673 -2.058820 -2.059600 -2.058587 -2.056210 -2.053832 -2.051014 -2.044839 -2.038664 -2.032490 -2.026315 -2.018043 -2.008323 -1.996859 -1.978961 -1.961064 -1.943166 -1.925268 -1.907370 -1.889472 -1.871575 -1.853680 -1.836927 -1.820173 -1.801880 -1.773008 -1.741823 -1.708186 -1.674549 -1.640913 -1.607276 -1.573639 -1.540002 -1.506366 -1.472729 -1.430231 -1.386770 -1.343309
0.392979 0.508937 0.624894 0.740852 0.856810 0.972767 1.088725 1.204683 1.320640 1.436598 1.554623 1.682886 1.811150 1.939414 2.000000 2.000000 2.000000 2.000000 2.000000 2.000000 2.000000 2.000000 2.000000 2.000000 2.000000 2.000000 2.000000 2.000000 2.000000 1.959246 1.905278 1.851309 1.797341 1.743373 1.689404 1.635436 1.581468 1.527499 1.473531 1.464172 1.468183 1.472193 1.477685 1.483269 1.488853 1.494437 1.500020 1.505604 1.511188 1.516771 1.457684 1.345288 1.232893 1.120497 1.028041 0.941975 0.855910 0.769844 0.683778 0.597713 0.511647 0.493935 0.516076 0.538216 0.560357 0.582498 0.590697 0.595768 0.600838 0.605909 0.610979 0.616050 0.545305 0.467563 0.389821 0.312079 0.234337 0.156595 0.081092 0.005765 -0.069562 -0.144888 -0.209983 -0.250382 -0.290781 -0.331180 -0.371579 -0.411978 -0.452377 -0.492777 -0.541237 -0.591453 -0.641668 -0.689767 -0.736692 -0.783617 -0.830542 -0.877466 -0.924391 -0.971316 -1.018241 -1.065165 -1.104162 -1.120315 -1.135822 -1.166809 -1.202737 -1.238664 -1.274592 -1.310519 -1.346447 -1.382020 -1.416556 -1.451092 -1.487768 -1.500000 -1.500000 -1.500000 -1.500000 -1.500000 -1.500000 -1.500000 -1.500000 -1.500000 -1.500000 -1.500000 -1.500000 -1.500000 -1.500000 -1.500000 -1.500000 -1.500000 -1.500000 -1.500000 -1.500000 -1.500000 -1.500000 -1.500000 -1.500000 -1.500000 -1.500000 -1.500000 -1.500000 -1.500000 -1.500000 -1.500000 -1.468494 -1.417753 -1.367011 -1.316269 -1.265528 -1.214786 -1.178007 -1.144500 -1.110994 -1.077488 -1.043981 -1.012589 -1.029332 -1.046075 -1.062819 -1.079562 -1.096306 -1.113049 -1.129792 -1.142508 -1.151568 -1.160627 -1.169687 -1.179231 -1.190404 -1.201577 -1.212750 -1.223923 -1.235096 -1.246269 -1.257442 -1.268615 -1.279392 -1.287313 -1.295234 -1.304213 -1.314255 -1.324298 -1.334340 -1.344383 -1.354425 -1.364467 -1.374510 -1.384552 -1.394594 -1.404637 -1.413018 -1.422639 -1.432260 -1.441881 -1.449936 -1.457959 -1.465982 -1.474004 -1.482027 -1.490050 -1.498073 -1.506381 -1.515402 -1.524084 -1.532577 -1.541069 -1.549562 -1.558054 -1.566547 -1.575039 -1.583532 -1.592024 -1.600836 -1.609737 -1.618638 -1.627539 -1.636926 -1.646742 -1.656557 -1.666372 -1.676187 -1.686002 -1.695827 -1.705663 -1.715498 -1.725333 -1.735169 -1.745004 -1.754840 -1.765097 -1.776102 -1.787106 -1.798020 -1.808819 -1.819618 -1.830416 -1.841215 -1.852014 -1.862812 -1.873611 -1.884409 -1.892816 -1.899999 -1.907274 -1.914550 -1.921826 -1.929101 -1.936377 -1.943653 -1.950928 -1.958204 -1.965480 -1.971109 -1.976721 -1.982333 -1.987945 -1.993104 -1.998136 -2.003167 -2.008198 -2.013230 -2.016461 -2.019343 -2.022225 -2.025106 -2.027988 -2.030870 -2.033751 -2.036633 -2.037499 -2.035121 -2.031218 -2.025043 -2.018868 -2.012693 -2.006518 -2.000343 -1.993935 -1.984214 -1.974494 -1.964774 -1.949039 -1.931141 -1.913243 -1.895345 -1.877448 -1.859550 -1.841652 -1.823754 -1.805856 -1.787958 -1.770061 -1.740631 -1.706994 -1.673357 -1.639721 -1.606084 -1.572447 -1.538810 -1.505174 -1.471537 -1.437900 -1.400423 -1.356962 -1.313500
0.294161 0.422425 0.550688 0.678952 0.807216 0.935480 1.063744 1.192008 1.320271 1.448535 1.576799 1.705063 1.833327 1.961590 2.000000 2.000000 2.000000 2.000000 2.000000 2.000000 2.000000 2.000000 2.000000 2.000000 2.000000 2.000000 2.000000 2.000000 2.000000 2.000000 1.989300 1.935331 1.881363 1.827395 1.773426 1.719458 1.665490 1.611521 1.557553 1.555894 1.559904 1.563914 1.567925 1.572681 1.578265 1.583848 1.589432 1.595016 1.600600 1.606183 1.537045 1.424650 1.312254 1.199859 1.087463 0.983100 0.897034 0.810969 0.724903 0.638837 0.552772 0.538280 0.560421 0.582562 0.604703 0.626844 0.648984 0.665263 0.670333 0.675404 0.680474 0.685545 0.616809 0.539067 0.461325 0.383583 0.305841 0.228099 0.150358 0.073569 -0.001758 -0.077085 -0.144629 -0.185028 -0.225427 -0.265826 -0.306225 -0.346624 -0.387024 -0.427423 -0.467822 -0.510218 -0.560434 -0.608848 -0.655773 -0.702698 -0.749623 -0.796547 -0.843472 -0.890397 -0.937322 -0.984246 -1.031171 -1.084071 -1.123788 -1.158324 -1.192861 -1.227397 -1.261933 -1.296469 -1.331006 -1.365542 -1.400078 -1.437448 -1.482089 -1.500000 -1.500000 -1.500000 -1.500000 -1.500000 -1.500000 -1.500000 -1.500000 -1.500000 -1.500000 -1.500000 -1.500000 -1.500000 -1.500000 -1.500000 -1.500000 -1.500000 -1.500000 -1.500000 -1.500000 -1.500000 -1.500000 -1.500000 -1.500000 -1.500000 -1.500000 -1.500000 -1.500000 -1.500000 -1.500000 -1.458508 -1.407767 -1.357025 -1.306283 -1.255542 -1.204800 -1.154058 -1.113487 -1.079981 -1.046474 -1.012968 -0.988555 -1.005298 -1.022042 -1.038785 -1.055529 -1.072272 -1.089015 -1.105759 -1.122502 -1.137223 -1.146283 -1.155343 -1.164985 -1.176158 -1.187331 -1.198504 -1.209677 -1.220850 -1.232023 -1.243196 -1.254369 -1.265543 -1.276716 -1.285195 -1.294065 -1.304108 -1.314150 -1.324192 -1.334235 -1.344277 -1.354319 -1.364362 -1.374042 -1.382835 -1.391628 -1.400532 -1.409768 -1.417791 -1.425814 -1.433837 -1.441860 -1.449882 -1.457905 -1.465928 -1.473951 -1.481974 -1.490160 -1.499181 -1.508202 -1.517060 -1.525553 -1.534045 -1.542538 -1.551030 -1.559523 -1.568015 -1.576508 -1.585245 -1.594145 -1.603046 -1.611947 -1.620848 -1.629913 -1.639728 -1.649543 -1.659358 -1.669173 -1.678994 -1.688829 -1.698665 -1.708500 -1.718336 -1.728171 -1.738006 -1.747842 -1.757677 -1.768663 -1.779632 -1.790431 -1.801230 -1.812028 -1.822827 -1.833626 -1.841998 -1.849857 -1.857717 -1.865576 -1.873093 -1.879532 -1.886503 -1.893779 -1.901054 -1.908330 -1.915605 -1.922881 -1.930157 -1.937432 -1.943595 -1.949206 -1.954818 -1.960430 -1.966042 -1.971451 -1.976483 -1.981514 -1.986546 -1.990658 -1.993540 -1.996421 -1.999303 -2.002185 -2.005066 -2.007948 -2.010830 -2.013711 -2.011421 -2.005246 -1.999071 -1.992896 -1.986722 -1.980547 -1.974372 -1.968197 -1.960106 -1.950386 -1.940666 -1.930945 -1.919116 -1.901218 -1.883321 -1.865423 -1.847525 -1.829627 -1.811729 -1.793831 -1.775934 -1.755132 -1.732558 -1.708346 -1.674047 -1.639747 -1.605448 -1.571255 -1.537619 -1.503982 -1.470345 -1.436708 -1.403072 -1.369435 -1.327153 -1.283692
