-3.881966 -3.868179 -3.854392 -3.840604 -3.826817 -3.813029 -3.799242 -3.785455 -3.771667 -3.757880 -3.744092 -3.730305 -3.716518 -3.702730 -3.688943 -3.675155 -3.661368 -3.647581 -3.633793 -3.620006 -3.606218 -3.592431 -3.578644 -3.564856 -3.551069 -3.537281 -3.523494 -3.509707 -3.495919 -3.482132 -3.468344 -3.454368 -3.440158 -3.425947 -3.411737 -3.397527 -3.383316 -3.369106 -3.354895 -3.340685 -3.326475 -3.312264 -3.298054 -3.283844 -3.269633 -3.255423 -3.241213 -3.227002 -3.212792 -3.198581 -3.184371 -3.170161 -3.155950 -3.141740 -3.127530 -3.113319 -3.099109 -3.084898 -3.070688 -3.056478 -3.042267 -3.028057 -3.013847 -2.999535 -2.985190 -2.970795 -2.956387 -2.941980 -2.927572 -2.913129 -2.898549 -2.883968 -2.869388 -2.854808 -2.840227 -2.825647 -2.811066 -2.796486 -2.781906 -2.767325 -2.752745 -2.738164 -2.723584 -2.709003 -2.694423 -2.679843 -2.665262 -2.650682 -2.636101 -2.621521 -2.606941 -2.592360 -2.577780 -2.563199 -2.548619 -2.534038 -2.519458 -2.504878 -2.490297 -2.475717 -2.461136 -2.446556 -2.431976 -2.417395 -2.402815 -2.388234 -2.373654 -2.359073 -2.344493 -2.329913 -2.315332 -2.300752 -2.286171 -2.271591 -2.257011 -2.242430 -2.227850 -2.213269 -2.198689 -2.184108 -2.169704 -2.155527 -2.141350 -2.127172 -2.112995 -2.098818 -2.084641 -2.070463 -2.056286 -2.042109 -2.027932 -2.013754 -1.999577 -1.985400 -1.971222 -1.957045 -1.942868 -1.928691 -1.914513 -1.900336 -1.886159 -1.871982 -1.857804 -1.844364 -1.831183 -1.818003 -1.804822 -1.791642 -1.778462 -1.765281 -1.752101 -1.738920 -1.725740 -1.712559 -1.699379 -1.686199 -1.673018 -1.659838 -1.646657 -1.633477 -1.620297 -1.607116 -1.593936 -1.580755 -1.567575 -1.554394 -1.541214 -1.535034 -1.532113 -1.529191 -1.526269 -1.523347 -1.520425 -1.517504 -1.514582 -1.511660 -1.508738 -1.505816 -1.502895 -1.499973 -1.497051 -1.494129 -1.491207 -1.488286 -1.485364 -1.482449 -1.479659 -1.476868 -1.474078 -1.471288 -1.468498 -1.465708 -1.462918 -1.460128 -1.457338 -1.454547 -1.451757 -1.448967 -1.446177 -1.443387 -1.440597 -1.437807 -1.435017 -1.432226 -1.429436 -1.426646 -1.423856 -1.421066 -1.343282 -1.265149 -1.187015 -1.108882 -1.030748 -0.952615 -0.874481 -0.796348 -0.718215 -0.707713 -0.711241 -0.714769 -0.718296 -0.721824 1.000000 1.000000 1.000000 1.000000 1.000000 1.000000 1.000000 1.000000 1.000000 1.000000 1.000000 1.000000 1.000000 1.000000 1.000000 1.000000 1.000000 1.000000 1.000000 1.000000 1.000000 1.000000 1.000000 1.000000 1.000000 1.000000 1.000000 1.000000 1.000000 1.000000 1.000000 1.000000 1.000000 1.000000 1.000000 1.000000 1.000000 1.000000 1.000000 1.000000 1.000000 1.000000 1.000000 1.000000 1.000000 1.000000 1.000000 1.000000 1.000000 1.000000 1.000000 1.000000 1.000000 1.000000 1.000000 1.000000 1.000000 1.000000 1.000000 1.000000 1.000000 1.000000 1.000000 1.000000 1.000000 1.000000 1.000000 1.000000 1.000000 1.000000 1.000000 1.000000 1.000000 1.000000 1.000000 1.000000 1.000000 1.000000 1.000000 1.000000 1.000000 1.000000 1.000000 1.000000 1.000000
-3.882970 -3.869183 -3.855395 -3.841608 -3.827820 -3.814033 -3.800245 -3.786458 -3.772671 -3.758883 -3.745096 -3.731308 -3.717521 -3.703734 -3.689946 -3.676159 -3.662371 -3.648584 -3.634797 -3.621009 -3.607222 -3.593434 -3.579647 -3.565860 -3.552072 -3.538285 -3.524497 -3.510710 -3.496923 -3.483135 -3.469348 -3.455560 -3.441773 -3.427583 -3.413373 -3.399162 -3.384952 -3.370741 -3.356531 -3.342321 -3.328110 -3.313900 -3.299690 -3.285479 -3.271269 -3.257059 -3.242848 -3.228638 -3.214427 -3.200217 -3.186007 -3.171796 -3.157586 -3.143376 -3.129165 -3.114955 -3.100744 -3.086534 -3.072324 -3.058113 -3.043903 -3.029693 -3.015482 -3.001272 -2.987015 -2.972120 -2.957500 -2.942920 -2.928339 -2.913759 -2.899178 -2.884598 -2.870017 -2.855437 -2.840857 -2.826276 -2.811696 -2.797115 -2.782535 -2.767955 -2.753374 -2.738794 -2.724213 -2.709633 -2.695052 -2.680472 -2.665892 -2.651311 -2.636731 -2.622150 -2.607570 -2.592990 -2.578409 -2.563829 -2.549248 -2.534668 -2.520087 -2.505507 -2.490927 -2.476346 -2.461766 -2.447185 -2.432605 -2.418025 -2.403444 -2.388864 -2.374283 -2.359703 -2.345122 -2.330542 -2.315962 -2.301381 -2.286801 -2.272220 -2.257640 -2.243060 -2.228479 -2.213899 -2.199318 -2.184738 -2.170408 -2.156231 -2.142053 -2.127876 -2.113699 -2.099522 -2.085344 -2.071167 -2.056990 -2.042813 -2.028635 -2.014458 -2.000281 -1.986104 -1.971926 -1.957749 -1.943572 -1.929395 -1.915217 -1.901040 -1.886863 -1.872686 -1.858508 -1.844331 -1.830154 -1.815976 -1.802093 -1.788913 -1.775732 -1.762552 -1.749371 -1.736191 -1.723011 -1.709830 -1.696650 -1.683469 -1.670289 -1.657109 -1.643928 -1.630748 -1.617567 -1.604387 -1.591206 -1.578026 -1.564846 -1.551665 -1.538485 -1.533170 -1.530248 -1.527326 -1.524405 -1.521483 -1.518561 -1.515639 -1.512717 -1.509796 -1.506874 -1.503952 -1.501030 -1.498109 -1.495187 -1.492265 -1.489343 -1.486536 -1.483745 -1.480955 -1.478165 -1.475375 -1.472585 -1.469795 -1.467005 -1.464215 -1.461424 -1.458634 -1.455844 -1.453054 -1.450264 -1.447474 -1.444684 -1.441894 -1.439103 -1.436313 -1.433523 -1.430733 -1.427943 -1.425153 -1.422363 -1.404880 -1.326747 -1.248614 -1.170480 -1.092347 -1.014213 -0.936080 -0.857947 -0.779813 -0.701680 -0.623546 -0.622163 -0.625691 -0.629219 -0.632746 1.000000 1.000000 1.000000 1.000000 1.000000 1.000000 1.000000 1.000000 1.000000 1.000000 1.000000 1.000000 1.000000 1.000000 1.000000 1.000000 1.000000 1.000000 1.000000 1.000000 1.000000 1.000000 1.000000 1.000000 1.000000 1.000000 1.000000 1.000000 1.000000 1.000000 1.000000 1.000000 1.000000 1.000000 1.000000 1.000000 1.000000 1.000000 1.000000 1.000000 1.000000 1.000000 1.000000 1.000000 1.000000 1.000000 1.000000 1.000000 1.000000 1.000000 1.000000 1.000000 1.000000 1.000000 1.000000 1.000000 1.000000 1.000000 1.000000 1.000000 1.000000 1.000000 1.000000 1.000000 1.000000 1.000000 1.000000 1.000000 1.000000 1.000000 1.000000 1.000000 1.000000 1.000000 1.000000 1.000000 1.000000 1.000000 1.000000 1.000000 1.000000 1.000000 1.000000 1.000000 1.000000
-3.883973 -3.870186 -3.856399 -3.842611 -3.828824 -3.815036 -3.801249 -3.787461 -3.773674 -3.759887 -3.746099 -3.732312 -3.718524 -3.704737 -3.690950 -3.677162 -3.663375 -3.649587 -3.635800 -3.622013 -3.608225 -3.594438 -3.580650 -3.566863 -3.553076 -3.539288 -3.525501 -3.511713 -3.497926 -3.484139 -3.470351 -3.456564 -3.442776 -3.428989 -3.415008 -3.400798 -3.386587 -3.372377 -3.358167 -3.343956 -3.329746 -3.315536 -3.301325 -3.287115 -3.272905 -3.258694 -3.244484 -3.230273 -3.216063 -3.201853 -3.187642 -3.173432 -3.159222 -3.145011 -3.130801 -3.116590 -3.102380 -3.088170 -3.073959 -3.059749 -3.045539 -3.031328 -3.017118 -3.002908 -2.988371 -2.973396 -2.958421 -2.943684 -2.929040 -2.914396 -2.899808 -2.885227 -2.870647 -2.856066 -2.841486 -2.826906 -2.812325 -2.797745 -2.783164 -2.768584 -2.754004 -2.739423 -2.724843 -2.710262 -2.695682 -2.681101 -2.666521 -2.651941 -2.637360 -2.622780 -2.608199 -2.593619 -2.579039 -2.564458 -2.549878 -2.535297 -2.520717 -2.506136 -2.491556 -2.476976 -2.462395 -2.447815 -2.433234 -2.418654 -2.404074 -2.389493 -2.374913 -2.360332 -2.345752 -2.331171 -2.316591 -2.302011 -2.287430 -2.272850 -2.258269 -2.243689 -2.229109 -2.214528 -2.199948 -2.185367 -2.171112 -2.156935 -2.142757 -2.128580 -2.114403 -2.100226 -2.086048 -2.071871 -2.057694 -2.043517 -2.029339 -2.015162 -2.000985 -1.986808 -1.972630 -1.958453 -1.944276 -1.930098 -1.915921 -1.901744 -1.887567 -1.873389 -1.859212 -1.845035 -1.830858 -1.816680 -1.802503 -1.788326 -1.774149 -1.759971 -1.746642 -1.733462 -1.720281 -1.707101 -1.693921 -1.680740 -1.667560 -1.654379 -1.641199 -1.628018 -1.614838 -1.601658 -1.588477 -1.575297 -1.562116 -1.548936 -1.535755 -1.531306 -1.528384 -1.525462 -1.522540 -1.519619 -1.516697 -1.513775 -1.510853 -1.507931 -1.505010 -1.502088 -1.499166 -1.496244 -1.493413 -1.490622 -1.487832 -1.485042 -1.482252 -1.479462 -1.476672 -1.473882 -1.471092 -1.468301 -1.465511 -1.462721 -1.459931 -1.457141 -1.454351 -1.451561 -1.448771 -1.445980 -1.443190 -1.440400 -1.437610 -1.434820 -1.432030 -1.429240 -1.426449 -1.423659 -1.420869 -1.388345 -1.310212 -1.232079 -1.153945 -1.075812 -0.997678 -0.919545 -0.841412 -0.763278 -0.685145 -0.607011 -0.533086 -0.536613 -0.540141 -0.543669 1.000000 1.000000 1.000000 1.000000 1.000000 1.000000 1.000000 1.000000 1.000000 1.000000 1.000000 1.000000 1.000000 1.000000 1.000000 1.000000 1.000000 1.000000 1.000000 1.000000 1.000000 1.000000 1.000000 1.000000 1.000000 1.000000 1.000000 1.000000 1.000000 1.000000 1.000000 1.000000 1.000000 1.000000 1.000000 1.000000 1.000000 1.000000 1.000000 1.000000 1.000000 1.000000 1.000000 1.000000 1.000000 1.000000 1.000000 1.000000 1.000000 1.000000 1.000000 1.000000 1.000000 1.000000 1.000000 1.000000 1.000000 1.000000 1.000000 1.000000 1.000000 1.000000 1.000000 1.000000 1.000000 1.000000 1.000000 1.000000 1.000000 1.000000 1.000000 1.000000 1.000000 1.000000 1.000000 1.000000 1.000000 1.000000 1.000000 1.000000 1.000000 1.000000 1.000000 1.000000 1.000000
-3.885050 -3.871210 -3.857402 -3.843615 -3.829827 -3.816040 -3.802252 -3.788465 -3.774678 -3.760890 -3.747103 -3.733315 -3.719528 -3.705740 -3.691953 -3.678166 -3.664378 -3.650591 -3.636803 -3.623016 -3.609229 -3.595441 -3.581654 -3.567866 -3.554079 -3.540292 -3.526504 -3.512717 -3.498929 -3.485142 -3.471355 -3.457567 -3.443780 -3.429992 -3.416205 -3.402418 -3.388223 -3.374013 -3.359802 -3.345592 -3.331382 -3.317171 -3.302961 -3.288751 -3.274540 -3.260330 -3.246119 -3.231909 -3.217699 -3.203488 -3.189278 -3.175068 -3.160857 -3.146647 -3.132436 -3.118226 -3.104016 -3.089805 -3.075595 -3.061385 -3.047174 -3.032964 -3.018754 -3.004543 -2.989728 -2.974753 -2.959778 -2.944803 -2.929892 -2.915248 -2.900604 -2.885960 -2.871316 -2.856696 -2.842115 -2.827535 -2.812955 -2.798374 -2.783794 -2.769213 -2.754633 -2.740053 -2.725472 -2.710892 -2.696311 -2.681731 -2.667150 -2.652570 -2.637990 -2.623409 -2.608829 -2.594248 -2.579668 -2.565088 -2.550507 -2.535927 -2.521346 -2.506766 -2.492185 -2.477605 -2.463025 -2.448444 -2.433864 -2.419283 -2.404703 -2.390123 -2.375542 -2.360962 -2.346381 -2.331801 -2.317220 -2.302640 -2.288060 -2.273479 -2.258899 -2.244318 -2.229738 -2.215158 -2.200577 -2.185997 -2.171816 -2.157639 -2.143461 -2.129284 -2.115107 -2.100930 -2.086752 -2.072575 -2.058398 -2.044220 -2.030043 -2.015866 -2.001689 -1.987511 -1.973334 -1.959157 -1.944980 -1.930802 -1.916625 -1.902448 -1.888271 -1.874093 -1.859916 -1.845739 -1.831562 -1.817384 -1.803207 -1.789030 -1.774853 -1.760675 -1.746498 -1.732321 -1.718143 -1.704372 -1.691191 -1.678011 -1.664830 -1.651650 -1.638470 -1.625289 -1.612109 -1.598928 -1.585748 -1.572568 -1.559387 -1.546207 -1.533026 -1.529441 -1.526520 -1.523598 -1.520676 -1.517754 -1.514832 -1.511911 -1.508989 -1.506067 -1.503145 -1.500290 -1.497499 -1.494709 -1.491919 -1.489129 -1.486339 -1.483549 -1.480759 -1.477969 -1.475178 -1.472388 -1.469598 -1.466808 -1.464018 -1.461228 -1.458438 -1.455647 -1.452857 -1.450067 -1.447277 -1.444487 -1.441697 -1.438907 -1.436117 -1.433326 -1.430536 -1.427746 -1.424956 -1.422166 -1.419376 -1.371810 -1.293677 -1.215544 -1.137410 -1.059277 -0.981143 -0.903010 -0.824877 -0.746743 -0.668610 -0.590476 -0.512343 -0.447536 -0.451064 -0.454591 1.000000 1.000000 1.000000 1.000000 1.000000 1.000000 1.000000 1.000000 1.000000 1.000000 1.000000 1.000000 1.000000 1.000000 1.000000 1.000000 1.000000 1.000000 1.000000 1.000000 1.000000 1.000000 1.000000 1.000000 1.000000 1.000000 1.000000 1.000000 1.000000 1.000000 1.000000 1.000000 1.000000 1.000000 1.000000 1.000000 1.000000 1.000000 1.000000 1.000000 1.000000 1.000000 1.000000 1.000000 1.000000 1.000000 1.000000 1.000000 1.000000 1.000000 1.000000 1.000000 1.000000 1.000000 1.000000 1.000000 1.000000 1.000000 1.000000 1.000000 1.000000 1.000000 1.000000 1.000000 1.000000 1.000000 1.000000 1.000000 1.000000 1.000000 1.000000 1.000000 1.000000 1.000000 1.000000 1.000000 1.000000 1.000000 1.000000 1.000000 1.000000 1.000000 1.000000 1.000000 1.000000
-3.886221 -3.872409 -3.858569 -3.844729 -3.830889 -3.817048 -3.803256 -3.789468 -3.775681 -3.761894 -3.748106 -3.734319 -3.720531 -3.706744 -3.692957 -3.679169 -3.665382 -3.651594 -3.637807 -3.624019 -3.610232 -3.596445 -3.582657 -3.568870 -3.555082 -3.541295 -3.527508 -3.513720 -3.499933 -3.486145 -3.472358 -3.458571 -3.444783 -3.430996 -3.417208 -3.403421 -3.389634 -3.375648 -3.361438 -3.347228 -3.333017 -3.318807 -3.304597 -3.290386 -3.276176 -3.261965 -3.247755 -3.233545 -3.219334 -3.205124 -3.190914 -3.176703 -3.162493 -3.148282 -3.134072 -3.119862 -3.105651 -3.091441 -3.077231 -3.063020 -3.048810 -3.034600 -3.020389 -3.006059 -2.991084 -2.976109 -2.961134 -2.946159 -2.931184 -2.916209 -2.901456 -2.886812 -2.872168 -2.857524 -2.842880 -2.828236 -2.813592 -2.799004 -2.784423 -2.769843 -2.755262 -2.740682 -2.726102 -2.711521 -2.696941 -2.682360 -2.667780 -2.653199 -2.638619 -2.624039 -2.609458 -2.594878 -2.580297 -2.565717 -2.551137 -2.536556 -2.521976 -2.507395 -2.492815 -2.478234 -2.463654 -2.449074 -2.434493 -2.419913 -2.405332 -2.390752 -2.376172 -2.361591 -2.347011 -2.332430 -2.317850 -2.303269 -2.288689 -2.274109 -2.259528 -2.244948 -2.230367 -2.215787 -2.201207 -2.186697 -2.172520 -2.158342 -2.144165 -2.129988 -2.115811 -2.101633 -2.087456 -2.073279 -2.059102 -2.044924 -2.030747 -2.016570 -2.002393 -1.988215 -1.974038 -1.959861 -1.945684 -1.931506 -1.917329 -1.903152 -1.888974 -1.874797 -1.860620 -1.846443 -1.832265 -1.818088 -1.803911 -1.789734 -1.775556 -1.761379 -1.747202 -1.733025 -1.718847 -1.704670 -1.690493 -1.676316 -1.662138 -1.648921 -1.635740 -1.622560 -1.609380 -1.596199 -1.583019 -1.569838 -1.556658 -1.543477 -1.530499 -1.527577 -1.524655 -1.521734 -1.518812 -1.515890 -1.512968 -1.510046 -1.507167 -1.504376 -1.501586 -1.498796 -1.496006 -1.493216 -1.490426 -1.487636 -1.484845 -1.482055 -1.479265 -1.476475 -1.473685 -1.470895 -1.468105 -1.465315 -1.462524 -1.459734 -1.456944 -1.454154 -1.451364 -1.448574 -1.445784 -1.442994 -1.440203 -1.437413 -1.434623 -1.431833 -1.429043 -1.426253 -1.423463 -1.420673 -1.417882 -1.355276 -1.277142 -1.199009 -1.120875 -1.042742 -0.964608 -0.886475 -0.808342 -0.730208 -0.652075 -0.573941 -0.495808 -0.417675 -0.361986 -0.365514 1.000000 1.000000 1.000000 1.000000 1.000000 1.000000 1.000000 1.000000 1.000000 1.000000 1.000000 1.000000 1.000000 1.000000 1.000000 1.000000 1.000000 1.000000 1.000000 1.000000 1.000000 1.000000 1.000000 1.000000 1.000000 1.000000 1.000000 1.000000 1.000000 1.000000 1.000000 1.000000 1.000000 1.000000 1.000000 1.000000 1.000000 1.000000 1.000000 1.000000 1.000000 1.000000 1.000000 1.000000 1.000000 1.000000 1.000000 1.000000 1.000000 1.000000 1.000000 1.000000 1.000000 1.000000 1.000000 1.000000 1.000000 1.000000 1.000000 1.000000 1.000000 1.000000 1.000000 1.000000 1.000000 1.000000 1.000000 1.000000 1.000000 1.000000 1.000000 1.000000 1.000000 1.000000 1.000000 1.000000 1.000000 1.000000 1.000000 1.000000 1.000000 1.000000 1.000000 1.000000 1.000000
-3.887300 -3.873530 -3.859753 -3.845928 -3.832088 -3.818248 -3.804408 -3.790568 -3.776727 -3.762897 -3.749110 -3.735322 -3.721535 -3.707747 -3.693960 -3.680173 -3.666385 -3.652598 -3.638810 -3.625023 -3.611236 -3.597448 -3.583661 -3.569873 -3.556086 -3.542298 -3.528511 -3.514724 -3.500936 -3.487149 -3.473361 -3.459574 -3.445787 -3.431999 -3.418212 -3.404424 -3.390637 -3.376850 -3.363062 -3.348863 -3.334653 -3.320443 -3.306232 -3.292022 -3.277811 -3.263601 -3.249391 -3.235180 -3.220970 -3.206760 -3.192549 -3.178339 -3.164128 -3.149918 -3.135708 -3.121497 -3.107287 -3.093077 -3.078866 -3.064656 -3.050446 -3.036235 -3.022025 -3.007416 -2.992441 -2.977466 -2.962491 -2.947516 -2.932541 -2.917566 -2.902591 -2.887665 -2.873021 -2.858377 -2.843732 -2.829088 -2.814444 -2.799800 -2.785156 -2.770512 -2.755892 -2.741311 -2.726731 -2.712151 -2.697570 -2.682990 -2.668409 -2.653829 -2.639248 -2.624668 -2.610088 -2.595507 -2.580927 -2.566346 -2.551766 -2.537186 -2.522605 -2.508025 -2.493444 -2.478864 -2.464283 -2.449703 -2.435123 -2.420542 -2.405962 -2.391381 -2.376801 -2.362221 -2.347640 -2.333060 -2.318479 -2.303899 -2.289318 -2.274738 -2.260158 -2.245577 -2.230997 -2.216416 -2.201836 -2.187401 -2.173224 -2.159046 -2.144869 -2.130692 -2.116515 -2.102337 -2.088160 -2.073983 -2.059806 -2.045628 -2.031451 -2.017274 -2.003096 -1.988919 -1.974742 -1.960565 -1.946387 -1.932210 -1.918033 -1.903856 -1.889678 -1.875501 -1.861324 -1.847147 -1.832969 -1.818792 -1.804615 -1.790438 -1.776260 -1.762083 -1.747906 -1.733729 -1.719551 -1.705374 -1.691197 -1.677019 -1.662842 -1.648665 -1.634488 -1.620310 -1.606650 -1.593470 -1.580289 -1.567109 -1.553929 -1.540748 -1.528635 -1.525713 -1.522791 -1.519869 -1.516947 -1.514044 -1.511253 -1.508463 -1.505673 -1.502883 -1.500093 -1.497303 -1.494513 -1.491722 -1.488932 -1.486142 -1.483352 -1.480562 -1.477772 -1.474982 -1.472192 -1.469401 -1.466611 -1.463821 -1.461031 -1.458241 -1.455451 -1.452661 -1.449871 -1.447080 -1.444290 -1.441500 -1.438710 -1.435920 -1.433130 -1.430340 -1.427550 -1.424759 -1.421969 -1.419179 -1.416389 -1.338741 -1.260607 -1.182474 -1.104340 -1.026207 -0.948074 -0.869940 -0.791807 -0.713673 -0.635540 -0.557406 -0.479273 -0.401140 -0.323006 -0.276436 1.000000 1.000000 1.000000 1.000000 1.000000 1.000000 1.000000 1.000000 1.000000 1.000000 1.000000 1.000000 1.000000 1.000000 1.000000 1.000000 1.000000 1.000000 1.000000 1.000000 1.000000 1.000000 1.000000 1.000000 1.000000 1.000000 1.000000 1.000000 1.000000 1.000000 1.000000 1.000000 1.000000 1.000000 1.000000 1.000000 1.000000 1.000000 1.000000 1.000000 1.000000 1.000000 1.000000 1.000000 1.000000 1.000000 1.000000 1.000000 1.000000 1.000000 1.000000 1.000000 1.000000 1.000000 1.000000 1.000000 1.000000 1.000000 1.000000 1.000000 1.000000 1.000000 1.000000 1.000000 1.000000 1.000000 1.000000 1.000000 1.000000 1.000000 1.000000 1.000000 1.000000 1.000000 1.000000 1.000000 1.000000 1.000000 1.000000 1.000000 1.000000 1.000000 1.000000 1.000000 1.000000
-3.887503 -3.874502 -3.860839 -3.847062 -3.833285 -3.819447 -3.805607 -3.791767 -3.777927 -3.764087 -3.750247 -3.736406 -3.722566 -3.708751 -3.694963 -3.681176 -3.667389 -3.653601 -3.639814 -3.626026 -3.612239 -3.598452 -3.584664 -3.570877 -3.557089 -3.543302 -3.529515 -3.515727 -3.501940 -3.488152 -3.474365 -3.460577 -3.446790 -3.433003 -3.419215 -3.405428 -3.391640 -3.377853 -3.364066 -3.350278 -3.336289 -3.322078 -3.307868 -3.293657 -3.279447 -3.265237 -3.251026 -3.236816 -3.222606 -3.208395 -3.194185 -3.179974 -3.165764 -3.151554 -3.137343 -3.123133 -3.108923 -3.094712 -3.080502 -3.066292 -3.052081 -3.037871 -3.023660 -3.008772 -2.993797 -2.978822 -2.963847 -2.948872 -2.933897 -2.918922 -2.903947 -2.888972 -2.873997 -2.859229 -2.844585 -2.829941 -2.815297 -2.800653 -2.786008 -2.771364 -2.756720 -2.742076 -2.727432 -2.712788 -2.698200 -2.683619 -2.669039 -2.654458 -2.639878 -2.625297 -2.610717 -2.596137 -2.581556 -2.566976 -2.552395 -2.537815 -2.523235 -2.508654 -2.494074 -2.479493 -2.464913 -2.450332 -2.435752 -2.421172 -2.406591 -2.392011 -2.377430 -2.362850 -2.348270 -2.333689 -2.319109 -2.304528 -2.289948 -2.275368 -2.260787 -2.246207 -2.231626 -2.217046 -2.202465 -2.188105 -2.173928 -2.159750 -2.145573 -2.131396 -2.117218 -2.103041 -2.088864 -2.074687 -2.060509 -2.046332 -2.032155 -2.017978 -2.003800 -1.989623 -1.975446 -1.961269 -1.947091 -1.932914 -1.918737 -1.904560 -1.890382 -1.876205 -1.862028 -1.847851 -1.833673 -1.819496 -1.805319 -1.791141 -1.776964 -1.762787 -1.748610 -1.734432 -1.720255 -1.706078 -1.691901 -1.677723 -1.663546 -1.649369 -1.635192 -1.621014 -1.606837 -1.592660 -1.578483 -1.564380 -1.551199 -1.538019 -1.526770 -1.523849 -1.520927 -1.518130 -1.515340 -1.512550 -1.509760 -1.506970 -1.504180 -1.501390 -1.498599 -1.495809 -1.493019 -1.490229 -1.487439 -1.484649 -1.481859 -1.479069 -1.476278 -1.473488 -1.470698 -1.467908 -1.465118 -1.462328 -1.459538 -1.456748 -1.453957 -1.451167 -1.448377 -1.445587 -1.442797 -1.440007 -1.437217 -1.434427 -1.431636 -1.428846 -1.426056 -1.423266 -1.420476 -1.417686 -1.400339 -1.322206 -1.244072 -1.165939 -1.087805 -1.009672 -0.931539 -0.853405 -0.775272 -0.697138 -0.619005 -0.540872 -0.462738 -0.384605 -0.306471 -0.228338 1.000000 1.000000 1.000000 1.000000 1.000000 1.000000 1.000000 1.000000 1.000000 1.000000 1.000000 1.000000 1.000000 1.000000 1.000000 1.000000 1.000000 1.000000 1.000000 1.000000 1.000000 1.000000 1.000000 1.000000 1.000000 1.000000 1.000000 1.000000 1.000000 1.000000 1.000000 1.000000 1.000000 1.000000 1.000000 1.000000 1.000000 1.000000 1.000000 1.000000 1.000000 1.000000 1.000000 1.000000 1.000000 1.000000 1.000000 1.000000 1.000000 1.000000 1.000000 1.000000 1.000000 1.000000 1.000000 1.000000 1.000000 1.000000 1.000000 1.000000 1.000000 1.000000 1.000000 1.000000 1.000000 1.000000 1.000000 1.000000 1.000000 1.000000 1.000000 1.000000 1.000000 1.000000 1.000000 1.000000 1.000000 1.000000 1.000000 1.000000 1.000000 1.000000 1.000000 1.000000 1.000000
-3.887706 -3.874705 -3.861704 -3.848149 -3.834371 -3.820594 -3.806807 -3.792967 -3.779126 -3.765286 -3.751446 -3.737606 -3.723766 -3.709926 -3.696085 -3.682245 -3.668405 -3.654605 -3.640817 -3.627030 -3.613242 -3.599455 -3.585668 -3.571880 -3.558093 -3.544305 -3.530518 -3.516731 -3.502943 -3.489156 -3.475368 -3.461581 -3.447793 -3.434006 -3.420219 -3.406431 -3.392644 -3.378856 -3.365069 -3.351282 -3.337494 -3.323707 -3.309503 -3.295293 -3.281083 -3.266872 -3.252662 -3.238452 -3.224241 -3.210031 -3.195820 -3.181610 -3.167400 -3.153189 -3.138979 -3.124769 -3.110558 -3.096348 -3.082138 -3.067927 -3.053717 -3.039506 -3.025104 -3.010129 -2.995154 -2.980179 -2.965204 -2.950229 -2.935254 -2.920279 -2.905304 -2.890329 -2.875354 -2.860379 -2.845437 -2.830793 -2.816149 -2.801505 -2.786861 -2.772217 -2.757573 -2.742928 -2.728284 -2.713640 -2.698996 -2.684352 -2.669708 -2.655088 -2.640507 -2.625927 -2.611346 -2.596766 -2.582186 -2.567605 -2.553025 -2.538444 -2.523864 -2.509284 -2.494703 -2.480123 -2.465542 -2.450962 -2.436381 -2.421801 -2.407221 -2.392640 -2.378060 -2.363479 -2.348899 -2.334319 -2.319738 -2.305158 -2.290577 -2.275997 -2.261417 -2.246836 -2.232256 -2.217675 -2.203095 -2.188809 -2.174631 -2.160454 -2.146277 -2.132100 -2.117922 -2.103745 -2.089568 -2.075391 -2.061213 -2.047036 -2.032859 -2.018682 -2.004504 -1.990327 -1.976150 -1.961972 -1.947795 -1.933618 -1.919441 -1.905263 -1.891086 -1.876909 -1.862732 -1.848554 -1.834377 -1.820200 -1.806023 -1.791845 -1.777668 -1.763491 -1.749314 -1.735136 -1.720959 -1.706782 -1.692605 -1.678427 -1.664250 -1.650073 -1.635895 -1.621718 -1.607541 -1.593364 -1.579186 -1.565009 -1.550832 -1.536468 -1.525096 -1.522217 -1.519427 -1.516637 -1.513847 -1.511057 -1.508267 -1.505476 -1.502686 -1.499896 -1.497106 -1.494316 -1.491526 -1.488736 -1.485946 -1.483155 -1.480365 -1.477575 -1.474785 -1.471995 -1.469205 -1.466415 -1.463625 -1.460834 -1.458044 -1.455254 -1.452464 -1.449674 -1.446884 -1.444094 -1.441304 -1.438513 -1.435723 -1.432933 -1.430143 -1.427353 -1.424563 -1.421773 -1.418983 -1.416192 -1.383804 -1.305671 -1.227537 -1.149404 -1.071270 -0.993137 -0.915004 -0.836870 -0.758737 -0.680603 -0.602470 -0.524337 -0.446203 -0.368070 -0.289936 -0.211803 1.000000 1.000000 1.000000 1.000000 1.000000 1.000000 1.000000 1.000000 1.000000 1.000000 1.000000 1.000000 1.000000 1.000000 1.000000 1.000000 1.000000 1.000000 1.000000 1.000000 1.000000 1.000000 1.000000 1.000000 1.000000 1.000000 1.000000 1.000000 1.000000 1.000000 1.000000 1.000000 1.000000 1.000000 1.000000 1.000000 1.000000 1.000000 1.000000 1.000000 1.000000 1.000000 1.000000 1.000000 1.000000 1.000000 1.000000 1.000000 1.000000 1.000000 1.000000 1.000000 1.000000 1.000000 1.000000 1.000000 1.000000 1.000000 1.000000 1.000000 1.000000 1.000000 1.000000 1.000000 1.000000 1.000000 1.000000 1.000000 1.000000 1.000000 1.000000 1.000000 1.000000 1.000000 1.000000 1.000000 1.000000 1.000000 1.000000 1.000000 1.000000 1.000000 1.000000 1.000000 1.000000
-3.887910 -3.874908 -3.861907 -3.848905 -3.835458 -3.821681 -3.807903 -3.794126 -3.780326 -3.766486 -3.752646 -3.738805 -3.724965 -3.711125 -3.697285 -3.683445 -3.669605 -3.655764 -3.641924 -3.628084 -3.614246 -3.600458 -3.586671 -3.572884 -3.559096 -3.545309 -3.531521 -3.517734 -3.503947 -3.490159 -3.476372 -3.462584 -3.448797 -3.435010 -3.421222 -3.407435 -3.393647 -3.379860 -3.366072 -3.352285 -3.338498 -3.324710 -3.310923 -3.296929 -3.282718 -3.268508 -3.254298 -3.240087 -3.225877 -3.211666 -3.197456 -3.183246 -3.169035 -3.154825 -3.140615 -3.126404 -3.112194 -3.097984 -3.083773 -3.069563 -3.055352 -3.041142 -3.026460 -3.011485 -2.996510 -2.981535 -2.966560 -2.951585 -2.936610 -2.921635 -2.906660 -2.891685 -2.876710 -2.861735 -2.846761 -2.831786 -2.817002 -2.802357 -2.787713 -2.773069 -2.758425 -2.743781 -2.729137 -2.714493 -2.699849 -2.685204 -2.670560 -2.655916 -2.641272 -2.626628 -2.611984 -2.597395 -2.582815 -2.568235 -2.553654 -2.539074 -2.524493 -2.509913 -2.495333 -2.480752 -2.466172 -2.451591 -2.437011 -2.422430 -2.407850 -2.393270 -2.378689 -2.364109 -2.349528 -2.334948 -2.320368 -2.305787 -2.291207 -2.276626 -2.262046 -2.247466 -2.232885 -2.218305 -2.203724 -2.189513 -2.175335 -2.161158 -2.146981 -2.132804 -2.118626 -2.104449 -2.090272 -2.076094 -2.061917 -2.047740 -2.033563 -2.019385 -2.005208 -1.991031 -1.976854 -1.962676 -1.948499 -1.934322 -1.920145 -1.905967 -1.891790 -1.877613 -1.863436 -1.849258 -1.835081 -1.820904 -1.806727 -1.792549 -1.778372 -1.764195 -1.750017 -1.735840 -1.721663 -1.707486 -1.693308 -1.679131 -1.664954 -1.650777 -1.636599 -1.622422 -1.607655 -1.592799 -1.577944 -1.563088 -1.548233 -1.533378 -1.524347 -1.521376 -1.518405 -1.515433 -1.512462 -1.509563 -1.506773 -1.503983 -1.501193 -1.498403 -1.495613 -1.492823 -1.490032 -1.487242 -1.484452 -1.481662 -1.478872 -1.476082 -1.473292 -1.470502 -1.467711 -1.464921 -1.462131 -1.459341 -1.456551 -1.453761 -1.450971 -1.448181 -1.445390 -1.442600 -1.439810 -1.437020 -1.434230 -1.431440 -1.428650 -1.425859 -1.423069 -1.420279 -1.417489 -1.414699 -1.367269 -1.289136 -1.211002 -1.132869 -1.054735 -0.976602 -0.898469 -0.820335 -0.742202 -0.664068 -0.585935 -0.507802 -0.429668 -0.351535 -0.273401 -0.195268 1.000000 1.000000 1.000000 1.000000 1.000000 1.000000 1.000000 1.000000 1.000000 1.000000 1.000000 1.000000 1.000000 1.000000 1.000000 1.000000 1.000000 1.000000 1.000000 1.000000 1.000000 1.000000 1.000000 1.000000 1.000000 1.000000 1.000000 1.000000 1.000000 1.000000 1.000000 1.000000 1.000000 1.000000 1.000000 1.000000 1.000000 1.000000 1.000000 1.000000 1.000000 1.000000 1.000000 1.000000 1.000000 1.000000 1.000000 1.000000 1.000000 1.000000 1.000000 1.000000 1.000000 1.000000 1.000000 1.000000 1.000000 1.000000 1.000000 1.000000 1.000000 1.000000 1.000000 1.000000 1.000000 1.000000 1.000000 1.000000 1.000000 1.000000 1.000000 1.000000 1.000000 1.000000 1.000000 1.000000 1.000000 1.000000 1.000000 1.000000 1.000000 1.000000 1.000000 1.000000 1.000000
-3.888113 -3.875112 -3.862110 -3.849109 -3.836107 -3.822767 -3.808990 -3.795213 -3.781436 -3.767658 -3.753845 -3.740005 -3.726165 -3.712325 -3.698484 -3.684644 -3.670804 -3.656964 -3.643124 -3.629284 -3.615443 -3.601603 -3.587763 -3.573923 -3.560100 -3.546312 -3.532525 -3.518737 -3.504950 -3.491163 -3.477375 -3.463588 -3.449800 -3.436013 -3.422226 -3.408438 -3.394651 -3.380863 -3.367076 -3.353289 -3.339501 -3.325714 -3.311926 -3.298139 -3.284351 -3.270144 -3.255933 -3.241723 -3.227512 -3.213302 -3.199092 -3.184881 -3.170671 -3.156461 -3.142250 -3.128040 -3.113830 -3.099619 -3.085409 -3.071198 -3.056988 -3.042778 -3.027817 -3.012842 -2.997867 -2.982892 -2.967917 -2.952942 -2.937967 -2.922992 -2.908017 -2.893042 -2.878067 -2.863092 -2.848117 -2.833142 -2.818167 -2.803210 -2.788566 -2.773922 -2.759278 -2.744633 -2.729989 -2.715345 -2.700701 -2.686057 -2.671413 -2.656769 -2.642125 -2.627480 -2.612836 -2.598192 -2.583548 -2.568904 -2.554284 -2.539703 -2.525123 -2.510542 -2.495962 -2.481382 -2.466801 -2.452221 -2.437640 -2.423060 -2.408479 -2.393899 -2.379319 -2.364738 -2.350158 -2.335577 -2.320997 -2.306417 -2.291836 -2.277256 -2.262675 -2.248095 -2.233515 -2.218934 -2.204394 -2.190216 -2.176039 -2.161862 -2.147685 -2.133507 -2.119330 -2.105153 -2.090976 -2.076798 -2.062621 -2.048444 -2.034267 -2.020089 -2.005912 -1.991735 -1.977558 -1.963380 -1.949203 -1.935026 -1.920849 -1.906671 -1.892494 -1.878317 -1.864139 -1.849962 -1.835785 -1.821608 -1.807430 -1.793253 -1.779076 -1.764899 -1.750721 -1.736544 -1.722367 -1.708190 -1.693697 -1.678841 -1.663986 -1.649131 -1.634275 -1.619420 -1.604564 -1.589709 -1.574854 -1.559998 -1.545143 -1.530287 -1.523598 -1.520627 -1.517656 -1.514684 -1.511713 -1.508742 -1.505771 -1.502800 -1.499828 -1.496909 -1.494119 -1.491329 -1.488539 -1.485749 -1.482959 -1.480169 -1.477379 -1.474588 -1.471798 -1.469008 -1.466218 -1.463428 -1.460638 -1.457848 -1.455058 -1.452267 -1.449477 -1.446687 -1.443897 -1.441107 -1.438317 -1.435527 -1.432736 -1.429946 -1.427156 -1.424366 -1.421576 -1.418786 -1.415996 -1.413206 -1.350734 -1.272601 -1.194467 -1.116334 -1.038201 -0.960067 -0.881934 -0.803800 -0.725667 -0.647533 -0.569400 -0.491267 -0.413133 -0.335000 -0.256866 -0.178733 1.000000 1.000000 1.000000 1.000000 1.000000 1.000000 1.000000 1.000000 1.000000 1.000000 1.000000 1.000000 1.000000 1.000000 1.000000 1.000000 1.000000 1.000000 1.000000 1.000000 1.000000 1.000000 1.000000 1.000000 1.000000 1.000000 1.000000 1.000000 1.000000 1.000000 1.000000 1.000000 1.000000 1.000000 1.000000 1.000000 1.000000 1.000000 1.000000 1.000000 1.000000 1.000000 1.000000 1.000000 1.000000 1.000000 1.000000 1.000000 1.000000 1.000000 1.000000 1.000000 1.000000 1.000000 1.000000 1.000000 1.000000 1.000000 1.000000 1.000000 1.000000 1.000000 1.000000 1.000000 1.000000 1.000000 1.000000 1.000000 1.000000 1.000000 1.000000 1.000000 1.000000 1.000000 1.000000 1.000000 1.000000 1.000000 1.000000 1.000000 1.000000 1.000000 1.000000 1.000000 1.000000
-3.888316 -3.875315 -3.862313 -3.849312 -3.836311 -3.823309 -3.810077 -3.796299 -3.782522 -3.768745 -3.754968 -3.741190 -3.727364 -3.713524 -3.699684 -3.685844 -3.672004 -3.658163 -3.644323 -3.630483 -3.616643 -3.602803 -3.588963 -3.575122 -3.561282 -3.547442 -3.533602 -3.519762 -3.505953 -3.492166 -3.478379 -3.464591 -3.450804 -3.437016 -3.423229 -3.409442 -3.395654 -3.381867 -3.368079 -3.354292 -3.340505 -3.326717 -3.312930 -3.299142 -3.285355 -3.271568 -3.257569 -3.243358 -3.229148 -3.214938 -3.200727 -3.186517 -3.172307 -3.158096 -3.143886 -3.129676 -3.115465 -3.101255 -3.087044 -3.072834 -3.058624 -3.044148 -3.029173 -3.014198 -2.999223 -2.984248 -2.969273 -2.954298 -2.939323 -2.924348 -2.909373 -2.894398 -2.879423 -2.864449 -2.849474 -2.834499 -2.819524 -2.804549 -2.789574 -2.774774 -2.760130 -2.745486 -2.730842 -2.716198 -2.701554 -2.686909 -2.672265 -2.657621 -2.642977 -2.628333 -2.613689 -2.599045 -2.584401 -2.569756 -2.555112 -2.540468 -2.525824 -2.511180 -2.496591 -2.482011 -2.467431 -2.452850 -2.438270 -2.423689 -2.409109 -2.394528 -2.379948 -2.365368 -2.350787 -2.336207 -2.321626 -2.307046 -2.292466 -2.277885 -2.263305 -2.248724 -2.234144 -2.219564 -2.205098 -2.190920 -2.176743 -2.162566 -2.148389 -2.134211 -2.120034 -2.105857 -2.091680 -2.077502 -2.063325 -2.049148 -2.034970 -2.020793 -2.006616 -1.992439 -1.978261 -1.964084 -1.949907 -1.935730 -1.921552 -1.907375 -1.893198 -1.879021 -1.864843 -1.850666 -1.836489 -1.822312 -1.808134 -1.793957 -1.779739 -1.764883 -1.750028 -1.735173 -1.720317 -1.705462 -1.690606 -1.675751 -1.660896 -1.646040 -1.631185 -1.616329 -1.601474 -1.586619 -1.571763 -1.556908 -1.542052 -1.527197 -1.522849 -1.519878 -1.516907 -1.513935 -1.510964 -1.507993 -1.505022 -1.502051 -1.499079 -1.496108 -1.493137 -1.490166 -1.487194 -1.484256 -1.481465 -1.478675 -1.475885 -1.473095 -1.470305 -1.467515 -1.464725 -1.461934 -1.459144 -1.456354 -1.453564 -1.450774 -1.447984 -1.445194 -1.442404 -1.439613 -1.436823 -1.434033 -1.431243 -1.428453 -1.425663 -1.422873 -1.420083 -1.417292 -1.414502 -1.411712 -1.334199 -1.256066 -1.177932 -1.099799 -1.021666 -0.943532 -0.865399 -0.787265 -0.709132 -0.630998 -0.552865 -0.474732 -0.396598 -0.318465 -0.240331 -0.162198 1.000000 1.000000 1.000000 1.000000 1.000000 1.000000 1.000000 1.000000 1.000000 1.000000 1.000000 1.000000 1.000000 1.000000 1.000000 1.000000 1.000000 1.000000 1.000000 1.000000 1.000000 1.000000 1.000000 1.000000 1.000000 1.000000 1.000000 1.000000 1.000000 1.000000 1.000000 1.000000 1.000000 1.000000 1.000000 1.000000 1.000000 1.000000 1.000000 1.000000 1.000000 1.000000 1.000000 1.000000 1.000000 1.000000 1.000000 1.000000 1.000000 1.000000 1.000000 1.000000 1.000000 1.000000 1.000000 1.000000 1.000000 1.000000 1.000000 1.000000 1.000000 1.000000 1.000000 1.000000 1.000000 1.000000 1.000000 1.000000 1.000000 1.000000 1.000000 1.000000 1.000000 1.000000 1.000000 1.000000 1.000000 1.000000 1.000000 1.000000 1.000000 1.000000 1.000000 1.000000 1.000000
-3.888520 -3.875518 -3.862517 -3.849515 -3.836514 -3.823512 -3.810511 -3.797386 -3.783609 -3.769832 -3.756054 -3.742277 -3.728500 -3.714723 -3.700883 -3.687043 -3.673203 -3.659363 -3.645523 -3.631683 -3.617842 -3.604002 -3.590162 -3.576322 -3.562482 -3.548642 -3.534801 -3.520961 -3.507121 -3.493281 -3.479441 -3.465601 -3.451807 -3.438020 -3.424232 -3.410445 -3.396658 -3.382870 -3.369083 -3.355295 -3.341508 -3.327721 -3.313933 -3.300146 -3.286358 -3.272571 -3.258784 -3.244994 -3.230784 -3.216573 -3.202363 -3.188153 -3.173942 -3.159732 -3.145522 -3.131311 -3.117101 -3.102890 -3.088680 -3.074470 -3.060259 -3.045505 -3.030530 -3.015555 -3.000580 -2.985605 -2.970630 -2.955655 -2.940680 -2.925705 -2.910730 -2.895755 -2.880780 -2.865805 -2.850830 -2.835855 -2.820880 -2.805905 -2.790930 -2.775955 -2.760983 -2.746338 -2.731694 -2.717050 -2.702406 -2.687762 -2.673118 -2.658474 -2.643830 -2.629185 -2.614541 -2.599897 -2.585253 -2.570609 -2.555965 -2.541321 -2.526676 -2.512032 -2.497388 -2.482744 -2.468100 -2.453480 -2.438899 -2.424319 -2.409738 -2.395158 -2.380578 -2.365997 -2.351417 -2.336836 -2.322256 -2.307675 -2.293095 -2.278515 -2.263934 -2.249354 -2.234773 -2.220193 -2.205802 -2.191624 -2.177447 -2.163270 -2.149092 -2.134915 -2.120738 -2.106561 -2.092383 -2.078206 -2.064029 -2.049852 -2.035674 -2.021497 -2.007320 -1.993143 -1.978965 -1.964788 -1.950611 -1.936434 -1.922256 -1.908079 -1.893902 -1.879725 -1.865547 -1.850925 -1.836070 -1.821215 -1.806359 -1.791504 -1.776648 -1.761793 -1.746938 -1.732082 -1.717227 -1.702371 -1.687516 -1.672661 -1.657805 -1.642950 -1.628094 -1.613239 -1.598384 -1.583528 -1.568673 -1.553817 -1.538962 -1.525071 -1.522100 -1.519129 -1.516158 -1.513186 -1.510215 -1.507244 -1.504273 -1.501302 -1.498330 -1.495359 -1.492388 -1.489417 -1.486445 -1.483474 -1.480503 -1.477532 -1.474561 -1.471602 -1.468811 -1.466021 -1.463231 -1.460441 -1.457651 -1.454861 -1.452071 -1.449281 -1.446490 -1.443700 -1.440910 -1.438120 -1.435330 -1.432540 -1.429750 -1.426960 -1.424169 -1.421379 -1.418589 -1.415799 -1.413009 -1.395798 -1.317664 -1.239531 -1.161397 -1.083264 -1.005131 -0.926997 -0.848864 -0.770730 -0.692597 -0.614464 -0.536330 -0.458197 -0.380063 -0.301930 -0.223796 -0.145663 1.000000 1.000000 1.000000 1.000000 1.000000 1.000000 1.000000 1.000000 1.000000 1.000000 1.000000 1.000000 1.000000 1.000000 1.000000 1.000000 1.000000 1.000000 1.000000 1.000000 1.000000 1.000000 1.000000 1.000000 1.000000 1.000000 1.000000 1.000000 1.000000 1.000000 1.000000 1.000000 1.000000 1.000000 1.000000 1.000000 1.000000 1.000000 1.000000 1.000000 1.000000 1.000000 1.000000 1.000000 1.000000 1.000000 1.000000 1.000000 1.000000 1.000000 1.000000 1.000000 1.000000 1.000000 1.000000 1.000000 1.000000 1.000000 1.000000 1.000000 1.000000 1.000000 1.000000 1.000000 1.000000 1.000000 1.000000 1.000000 1.000000 1.000000 1.000000 1.000000 1.000000 1.000000 1.000000 1.000000 1.000000 1.000000 1.000000 1.000000 1.000000 1.000000 1.000000 1.000000 1.000000
-3.888723 -3.875721 -3.862720 -3.849718 -3.836717 -3.823716 -3.810714 -3.797713 -3.784695 -3.770918 -3.757141 -3.743364 -3.729586 -3.715809 -3.702032 -3.688243 -3.674402 -3.660562 -3.646722 -3.632882 -3.619042 -3.605202 -3.591362 -3.577521 -3.563681 -3.549841 -3.536001 -3.522161 -3.508321 -3.494480 -3.480640 -3.466800 -3.452960 -3.439120 -3.425280 -3.411448 -3.397661 -3.383874 -3.370086 -3.356299 -3.342511 -3.328724 -3.314937 -3.301149 -3.287362 -3.273574 -3.259787 -3.246000 -3.232212 -3.218209 -3.203999 -3.189788 -3.175578 -3.161368 -3.147157 -3.132947 -3.118736 -3.104526 -3.090316 -3.076105 -3.061836 -3.046861 -3.031886 -3.016911 -3.001936 -2.986961 -2.971986 -2.957011 -2.942036 -2.927061 -2.912086 -2.897111 -2.882136 -2.867162 -2.852187 -2.837212 -2.822237 -2.807262 -2.792287 -2.777312 -2.762337 -2.747362 -2.732547 -2.717903 -2.703259 -2.688614 -2.673970 -2.659326 -2.644682 -2.630038 -2.615394 -2.600750 -2.586105 -2.571461 -2.556817 -2.542173 -2.527529 -2.512885 -2.498241 -2.483597 -2.468952 -2.454308 -2.439664 -2.425020 -2.410376 -2.395787 -2.381207 -2.366627 -2.352046 -2.337466 -2.322885 -2.308305 -2.293724 -2.279144 -2.264564 -2.249983 -2.235403 -2.220822 -2.206505 -2.192328 -2.178151 -2.163974 -2.149796 -2.135619 -2.121442 -2.107265 -2.093087 -2.078910 -2.064733 -2.050556 -2.036378 -2.022201 -2.008024 -1.993847 -1.979669 -1.965492 -1.951315 -1.936968 -1.922112 -1.907257 -1.892401 -1.877546 -1.862691 -1.847835 -1.832980 -1.818124 -1.803269 -1.788413 -1.773558 -1.758703 -1.743847 -1.728992 -1.714136 -1.699281 -1.684426 -1.669570 -1.654715 -1.639859 -1.625004 -1.610149 -1.595293 -1.580438 -1.565582 -1.550727 -1.535872 -1.524322 -1.521351 -1.518380 -1.515409 -1.512437 -1.509466 -1.506495 -1.503524 -1.500553 -1.497581 -1.494610 -1.491639 -1.488668 -1.485696 -1.482725 -1.479754 -1.476783 -1.473811 -1.470840 -1.467869 -1.464898 -1.461927 -1.458955 -1.456158 -1.453367 -1.450577 -1.447787 -1.444997 -1.442207 -1.439417 -1.436627 -1.433837 -1.431046 -1.428256 -1.425466 -1.422676 -1.419886 -1.417096 -1.414306 -1.411516 -1.379263 -1.301129 -1.222996 -1.144862 -1.066729 -0.988596 -0.910462 -0.832329 -0.754195 -0.676062 -0.597929 -0.519795 -0.441662 -0.363528 -0.285395 -0.207262 -0.129128 1.000000 1.000000 1.000000 1.000000 1.000000 1.000000 1.000000 1.000000 1.000000 1.000000 1.000000 1.000000 1.000000 1.000000 1.000000 1.000000 1.000000 1.000000 1.000000 1.000000 1.000000 1.000000 1.000000 1.000000 1.000000 1.000000 1.000000 1.000000 1.000000 1.000000 1.000000 1.000000 1.000000 1.000000 1.000000 1.000000 1.000000 1.000000 1.000000 1.000000 1.000000 1.000000 1.000000 1.000000 1.000000 1.000000 1.000000 1.000000 1.000000 1.000000 1.000000 1.000000 1.000000 1.000000 1.000000 1.000000 1.000000 1.000000 1.000000 1.000000 1.000000 1.000000 1.000000 1.000000 1.000000 1.000000 1.000000 1.000000 1.000000 1.000000 1.000000 1.000000 1.000000 1.000000 1.000000 1.000000 1.000000 1.000000 1.000000 1.000000 1.000000 1.000000 1.000000 1.000000 1.000000
-3.888926 -3.875925 -3.862923 -3.849922 -3.836920 -3.823919 -3.810917 -3.797916 -3.784915 -3.771913 -3.758227 -3.744450 -3.730673 -3.716896 -3.703118 -3.689341 -3.675564 -3.661762 -3.647922 -3.634082 -3.620241 -3.606401 -3.592561 -3.578721 -3.564881 -3.551041 -3.537200 -3.523360 -3.509520 -3.495680 -3.481840 -3.468000 -3.454159 -3.440319 -3.426479 -3.412639 -3.398799 -3.384959 -3.371119 -3.357302 -3.343515 -3.329727 -3.315940 -3.302153 -3.288365 -3.274578 -3.260790 -3.247003 -3.233216 -3.219428 -3.205634 -3.191424 -3.177214 -3.163003 -3.148793 -3.134582 -3.120372 -3.106162 -3.091951 -3.077741 -3.063192 -3.048218 -3.033243 -3.018268 -3.003293 -2.988318 -2.973343 -2.958368 -2.943393 -2.928418 -2.913443 -2.898468 -2.883493 -2.868518 -2.853543 -2.838568 -2.823593 -2.808618 -2.793643 -2.778668 -2.763693 -2.748718 -2.733743 -2.718768 -2.704111 -2.689467 -2.674823 -2.660179 -2.645534 -2.630890 -2.616246 -2.601602 -2.586958 -2.572314 -2.557670 -2.543026 -2.528381 -2.513737 -2.499093 -2.484449 -2.469805 -2.455161 -2.440517 -2.425873 -2.411228 -2.396584 -2.381940 -2.367296 -2.352676 -2.338095 -2.323515 -2.308934 -2.294354 -2.279773 -2.265193 -2.250613 -2.236032 -2.221452 -2.207209 -2.193032 -2.178855 -2.164678 -2.150500 -2.136323 -2.122146 -2.107969 -2.093791 -2.079614 -2.065437 -2.051259 -2.037082 -2.022905 -2.008154 -1.993299 -1.978443 -1.963588 -1.948733 -1.933877 -1.919022 -1.904166 -1.889311 -1.874456 -1.859600 -1.844745 -1.829889 -1.815034 -1.800179 -1.785323 -1.770468 -1.755612 -1.740757 -1.725902 -1.711046 -1.696191 -1.681335 -1.666480 -1.651624 -1.636769 -1.621914 -1.607058 -1.592203 -1.577347 -1.562492 -1.547637 -1.532781 -1.523573 -1.520602 -1.517631 -1.514660 -1.511688 -1.508717 -1.505746 -1.502775 -1.499803 -1.496832 -1.493861 -1.490890 -1.487919 -1.484947 -1.481976 -1.479005 -1.476034 -1.473062 -1.470091 -1.467120 -1.464149 -1.461178 -1.458206 -1.455235 -1.452264 -1.449293 -1.446321 -1.443504 -1.440714 -1.437923 -1.435133 -1.432343 -1.429553 -1.426763 -1.423973 -1.421183 -1.418393 -1.415602 -1.412812 -1.410022 -1.362728 -1.284594 -1.206461 -1.128327 -1.050194 -0.972061 -0.893927 -0.815794 -0.737660 -0.659527 -0.581394 -0.503260 -0.425127 -0.346993 -0.268860 -0.190727 -0.112593 1.000000 1.000000 1.000000 1.000000 1.000000 1.000000 1.000000 1.000000 1.000000 1.000000 1.000000 1.000000 1.000000 1.000000 1.000000 1.000000 1.000000 1.000000 1.000000 1.000000 1.000000 1.000000 1.000000 1.000000 1.000000 1.000000 1.000000 1.000000 1.000000 1.000000 1.000000 1.000000 1.000000 1.000000 1.000000 1.000000 1.000000 1.000000 1.000000 1.000000 1.000000 1.000000 1.000000 1.000000 1.000000 1.000000 1.000000 1.000000 1.000000 1.000000 1.000000 1.000000 1.000000 1.000000 1.000000 1.000000 1.000000 1.000000 1.000000 1.000000 1.000000 1.000000 1.000000 1.000000 1.000000 1.000000 1.000000 1.000000 1.000000 1.000000 1.000000 1.000000 1.000000 1.000000 1.000000 1.000000 1.000000 1.000000 1.000000 1.000000 1.000000 1.000000 1.000000 1.000000 1.000000
-3.889129 -3.876128 -3.863126 -3.850125 -3.837124 -3.824122 -3.811121 -3.798119 -3.785118 -3.772116 -3.759115 -3.745537 -3.731760 -3.717982 -3.704205 -3.690428 -3.676651 -3.662873 -3.649096 -3.635281 -3.621441 -3.607601 -3.593761 -3.579920 -3.566080 -3.552240 -3.538400 -3.524560 -3.510720 -3.496879 -3.483039 -3.469199 -3.455359 -3.441519 -3.427679 -3.413838 -3.399998 -3.386158 -3.372318 -3.358478 -3.344638 -3.330798 -3.316957 -3.303156 -3.289369 -3.275581 -3.261794 -3.248006 -3.234219 -3.220432 -3.206644 -3.192857 -3.178849 -3.164639 -3.150428 -3.136218 -3.122008 -3.107797 -3.093587 -3.079377 -3.064549 -3.049574 -3.034599 -3.019624 -3.004649 -2.989674 -2.974699 -2.959724 -2.944749 -2.929774 -2.914799 -2.899824 -2.884849 -2.869875 -2.854900 -2.839925 -2.824950 -2.809975 -2.795000 -2.780025 -2.765050 -2.750075 -2.735100 -2.720125 -2.705150 -2.690319 -2.675675 -2.661031 -2.646387 -2.631743 -2.617099 -2.602455 -2.587810 -2.573166 -2.558522 -2.543878 -2.529234 -2.514590 -2.499946 -2.485302 -2.470657 -2.456013 -2.441369 -2.426725 -2.412081 -2.397437 -2.382793 -2.368148 -2.353504 -2.338860 -2.324216 -2.309572 -2.294983 -2.280403 -2.265822 -2.251242 -2.236662 -2.222090 -2.207913 -2.193736 -2.179559 -2.165381 -2.151204 -2.137027 -2.122850 -2.108672 -2.094196 -2.079341 -2.064485 -2.049630 -2.034775 -2.019919 -2.005064 -1.990208 -1.975353 -1.960498 -1.945642 -1.930787 -1.915931 -1.901076 -1.886221 -1.871365 -1.856510 -1.841654 -1.826799 -1.811944 -1.797088 -1.782233 -1.767377 -1.752522 -1.737667 -1.722811 -1.707956 -1.693100 -1.678245 -1.663390 -1.648534 -1.633679 -1.618823 -1.603968 -1.589113 -1.574257 -1.559402 -1.544546 -1.529691 -1.522824 -1.519853 -1.516882 -1.513911 -1.510939 -1.507968 -1.504997 -1.502026 -1.499054 -1.496083 -1.493112 -1.490141 -1.487170 -1.484198 -1.481227 -1.478256 -1.475285 -1.472313 -1.469342 -1.466371 -1.463400 -1.460429 -1.457457 -1.454486 -1.451515 -1.448544 -1.445572 -1.442601 -1.439630 -1.436659 -1.433688 -1.430850 -1.428060 -1.425270 -1.422479 -1.419689 -1.416899 -1.414109 -1.411319 -1.408529 -1.346193 -1.268059 -1.189926 -1.111793 -1.033659 -0.955526 -0.877392 -0.799259 -0.721125 -0.642992 -0.564859 -0.486725 -0.408592 -0.330458 -0.252325 -0.174192 -0.096058 1.000000 1.000000 1.000000 1.000000 1.000000 1.000000 1.000000 1.000000 1.000000 1.000000 1.000000 1.000000 1.000000 1.000000 1.000000 1.000000 1.000000 1.000000 1.000000 1.000000 1.000000 1.000000 1.000000 1.000000 1.000000 1.000000 1.000000 1.000000 1.000000 1.000000 1.000000 1.000000 1.000000 1.000000 1.000000 1.000000 1.000000 1.000000 1.000000 1.000000 1.000000 1.000000 1.000000 1.000000 1.000000 1.000000 1.000000 1.000000 1.000000 1.000000 1.000000 1.000000 1.000000 1.000000 1.000000 1.000000 1.000000 1.000000 1.000000 1.000000 1.000000 1.000000 1.000000 1.000000 1.000000 1.000000 1.000000 1.000000 1.000000 1.000000 1.000000 1.000000 1.000000 1.000000 1.000000 1.000000 1.000000 1.000000 1.000000 1.000000 1.000000 1.000000 1.000000 1.000000 1.000000
-3.889333 -3.876331 -3.863330 -3.850328 -3.837327 -3.824325 -3.811324 -3.798323 -3.785321 -3.772320 -3.759318 -3.746317 -3.732846 -3.719069 -3.705292 -3.691514 -3.677737 -3.663960 -3.650183 -3.636405 -3.622628 -3.608800 -3.594960 -3.581120 -3.567280 -3.553440 -3.539599 -3.525759 -3.511919 -3.498079 -3.484239 -3.470399 -3.456558 -3.442718 -3.428878 -3.415038 -3.401198 -3.387358 -3.373517 -3.359677 -3.345837 -3.331997 -3.318157 -3.304317 -3.290477 -3.276636 -3.262797 -3.249010 -3.235222 -3.221435 -3.207648 -3.193860 -3.180073 -3.166274 -3.152064 -3.137854 -3.123643 -3.109433 -3.095223 -3.080880 -3.065905 -3.050931 -3.035956 -3.020981 -3.006006 -2.991031 -2.976056 -2.961081 -2.946106 -2.931131 -2.916156 -2.901181 -2.886206 -2.871231 -2.856256 -2.841281 -2.826306 -2.811331 -2.796356 -2.781381 -2.766406 -2.751431 -2.736456 -2.721481 -2.706506 -2.691531 -2.676557 -2.661884 -2.647239 -2.632595 -2.617951 -2.603307 -2.588663 -2.574019 -2.559375 -2.544731 -2.530086 -2.515442 -2.500798 -2.486154 -2.471510 -2.456866 -2.442222 -2.427577 -2.412933 -2.398289 -2.383645 -2.369001 -2.354357 -2.339713 -2.325069 -2.310424 -2.295780 -2.281136 -2.266492 -2.251871 -2.237291 -2.222794 -2.208617 -2.194440 -2.180238 -2.165383 -2.150528 -2.135672 -2.120817 -2.105961 -2.091106 -2.076250 -2.061395 -2.046540 -2.031684 -2.016829 -2.001973 -1.987118 -1.972263 -1.957407 -1.942552 -1.927696 -1.912841 -1.897986 -1.883130 -1.868275 -1.853419 -1.838564 -1.823709 -1.808853 -1.793998 -1.779142 -1.764287 -1.749432 -1.734576 -1.719721 -1.704865 -1.690010 -1.675155 -1.660299 -1.645444 -1.630588 -1.615733 -1.600878 -1.586022 -1.571167 -1.556311 -1.541456 -1.526601 -1.522075 -1.519104 -1.516133 -1.513162 -1.510190 -1.507219 -1.504248 -1.501277 -1.498305 -1.495334 -1.492363 -1.489392 -1.486421 -1.483449 -1.480478 -1.477507 -1.474536 -1.471564 -1.468593 -1.465622 -1.462651 -1.459680 -1.456708 -1.453737 -1.450766 -1.447795 -1.444823 -1.441852 -1.438881 -1.435910 -1.432938 -1.429967 -1.426996 -1.424025 -1.421054 -1.418196 -1.415406 -1.412616 -1.409825 -1.407035 -1.329658 -1.251524 -1.173391 -1.095258 -1.017124 -0.938991 -0.860857 -0.782724 -0.704591 -0.626457 -0.548324 -0.470190 -0.392057 -0.313923 -0.235790 -0.157657 -0.079523 1.000000 1.000000 1.000000 1.000000 1.000000 1.000000 1.000000 1.000000 1.000000 1.000000 1.000000 1.000000 1.000000 1.000000 1.000000 1.000000 1.000000 1.000000 1.000000 1.000000 1.000000 1.000000 1.000000 1.000000 1.000000 1.000000 1.000000 1.000000 1.000000 1.000000 1.000000 1.000000 1.000000 1.000000 1.000000 1.000000 1.000000 1.000000 1.000000 1.000000 1.000000 1.000000 1.000000 1.000000 1.000000 1.000000 1.000000 1.000000 1.000000 1.000000 1.000000 1.000000 1.000000 1.000000 1.000000 1.000000 1.000000 1.000000 1.000000 1.000000 1.000000 1.000000 1.000000 1.000000 1.000000 1.000000 1.000000 1.000000 1.000000 1.000000 1.000000 1.000000 1.000000 1.000000 1.000000 1.000000 1.000000 1.000000 1.000000 1.000000 1.000000 1.000000 1.000000 1.000000 1.000000
-3.889536 -3.876534 -3.863533 -3.850532 -3.837530 -3.824529 -3.811527 -3.798526 -3.785524 -3.772523 -3.759521 -3.746520 -3.733519 -3.720155 -3.706378 -3.692601 -3.678824 -3.665047 -3.651269 -3.637492 -3.623715 -3.609938 -3.596159 -3.582319 -3.568479 -3.554639 -3.540799 -3.526959 -3.513119 -3.499278 -3.485438 -3.471598 -3.457758 -3.443918 -3.430078 -3.416237 -3.402397 -3.388557 -3.374717 -3.360877 -3.347037 -3.333196 -3.319356 -3.305516 -3.291676 -3.277836 -3.263996 -3.250156 -3.236315 -3.222475 -3.208651 -3.194864 -3.181076 -3.167289 -3.153501 -3.139489 -3.125279 -3.111069 -3.096858 -3.082237 -3.067262 -3.052287 -3.037312 -3.022337 -3.007362 -2.992387 -2.977412 -2.962437 -2.947462 -2.932487 -2.917512 -2.902537 -2.887562 -2.872588 -2.857613 -2.842638 -2.827663 -2.812688 -2.797713 -2.782738 -2.767763 -2.752788 -2.737813 -2.722838 -2.707863 -2.692888 -2.677913 -2.662938 -2.648092 -2.633448 -2.618804 -2.604160 -2.589515 -2.574871 -2.560227 -2.545583 -2.530939 -2.516295 -2.501651 -2.487006 -2.472362 -2.457718 -2.443074 -2.428430 -2.413786 -2.399142 -2.384498 -2.369853 -2.355209 -2.340565 -2.325921 -2.311277 -2.296633 -2.281989 -2.267345 -2.252700 -2.238056 -2.222667 -2.207015 -2.192003 -2.177148 -2.162293 -2.147437 -2.132582 -2.117726 -2.102871 -2.088016 -2.073160 -2.058305 -2.043449 -2.028594 -2.013739 -1.998883 -1.984028 -1.969172 -1.954317 -1.939461 -1.924606 -1.909751 -1.894895 -1.880040 -1.865184 -1.850329 -1.835474 -1.820618 -1.805763 -1.790907 -1.776052 -1.761197 -1.746341 -1.731486 -1.716630 -1.701775 -1.686920 -1.672064 -1.657209 -1.642353 -1.627498 -1.612643 -1.597787 -1.582932 -1.568076 -1.553221 -1.538366 -1.524297 -1.521326 -1.518355 -1.515384 -1.512413 -1.509441 -1.506470 -1.503499 -1.500528 -1.497556 -1.494585 -1.491614 -1.488643 -1.485672 -1.482700 -1.479729 -1.476758 -1.473787 -1.470815 -1.467844 -1.464873 -1.461902 -1.458930 -1.455959 -1.452988 -1.450017 -1.447046 -1.444074 -1.441103 -1.438132 -1.435161 -1.432189 -1.429218 -1.426247 -1.423276 -1.420305 -1.417333 -1.414362 -1.411391 -1.408420 -1.391256 -1.313123 -1.234989 -1.156856 -1.078723 -1.000589 -0.922456 -0.844322 -0.766189 -0.688056 -0.609922 -0.531789 -0.453655 -0.375522 -0.297389 -0.219255 -0.141122 -0.062988 1.000000 1.000000 1.000000 1.000000 1.000000 1.000000 1.000000 1.000000 1.000000 1.000000 1.000000 1.000000 1.000000 1.000000 1.000000 1.000000 1.000000 1.000000 1.000000 1.000000 1.000000 1.000000 1.000000 1.000000 1.000000 1.000000 1.000000 1.000000 1.000000 1.000000 1.000000 1.000000 1.000000 1.000000 1.000000 1.000000 1.000000 1.000000 1.000000 1.000000 1.000000 1.000000 1.000000 1.000000 1.000000 1.000000 1.000000 1.000000 1.000000 1.000000 1.000000 1.000000 1.000000 1.000000 1.000000 1.000000 1.000000 1.000000 1.000000 1.000000 1.000000 1.000000 1.000000 1.000000 1.000000 1.000000 1.000000 1.000000 1.000000 1.000000 1.000000 1.000000 1.000000 1.000000 1.000000 1.000000 1.000000 1.000000 1.000000 1.000000 1.000000 1.000000 1.000000 1.000000 1.000000
-3.889739 -3.876738 -3.863736 -3.850735 -3.837733 -3.824732 -3.811731 -3.798729 -3.785728 -3.772726 -3.759725 -3.746723 -3.733722 -3.720720 -3.707465 -3.693688 -3.679910 -3.666133 -3.652356 -3.638579 -3.624801 -3.611024 -3.597247 -3.583470 -3.569679 -3.555838 -3.541998 -3.528158 -3.514318 -3.500478 -3.486638 -3.472798 -3.458957 -3.445117 -3.431277 -3.417437 -3.403597 -3.389757 -3.375916 -3.362076 -3.348236 -3.334396 -3.320556 -3.306716 -3.292875 -3.279035 -3.265195 -3.251355 -3.237515 -3.223675 -3.209835 -3.195994 -3.182154 -3.168314 -3.154505 -3.140717 -3.126915 -3.112704 -3.098494 -3.083593 -3.068618 -3.053644 -3.038669 -3.023694 -3.008719 -2.993744 -2.978769 -2.963794 -2.948819 -2.933844 -2.918869 -2.903894 -2.888919 -2.873944 -2.858969 -2.843994 -2.829019 -2.814044 -2.799069 -2.784094 -2.769119 -2.754144 -2.739169 -2.724194 -2.709219 -2.694244 -2.679270 -2.664295 -2.649320 -2.634345 -2.619656 -2.605012 -2.590368 -2.575724 -2.561080 -2.546435 -2.531791 -2.517147 -2.502503 -2.487859 -2.473215 -2.458571 -2.443927 -2.429282 -2.414638 -2.399994 -2.385350 -2.370706 -2.356062 -2.341418 -2.326774 -2.312129 -2.297485 -2.282841 -2.268197 -2.253553 -2.238909 -2.222967 -2.206689 -2.190530 -2.175178 -2.159826 -2.144474 -2.129491 -2.114636 -2.099781 -2.084925 -2.070070 -2.055214 -2.040359 -2.025504 -2.010648 -1.995793 -1.980937 -1.966082 -1.951227 -1.936371 -1.921516 -1.906660 -1.891805 -1.876950 -1.862094 -1.847239 -1.832383 -1.817528 -1.802672 -1.787817 -1.772962 -1.758106 -1.743251 -1.728395 -1.713540 -1.698685 -1.683829 -1.668974 -1.654118 -1.639263 -1.624408 -1.609552 -1.594697 -1.579841 -1.564986 -1.550131 -1.535275 -1.523548 -1.520577 -1.517606 -1.514635 -1.511664 -1.508692 -1.505721 -1.502750 -1.499779 -1.496807 -1.493836 -1.490865 -1.487894 -1.484923 -1.481951 -1.478980 -1.476009 -1.473038 -1.470066 -1.467095 -1.464124 -1.461153 -1.458181 -1.455210 -1.452239 -1.449268 -1.446297 -1.443325 -1.440354 -1.437383 -1.434412 -1.431440 -1.428469 -1.425498 -1.422527 -1.419556 -1.416584 -1.411160 -1.404931 -1.398701 -1.378974 -1.338271 -1.250656 -1.161819 -1.072983 -0.984146 -0.905921 -0.827787 -0.749654 -0.671521 -0.593387 -0.515254 -0.437120 -0.358987 -0.280854 -0.202720 -0.124587 -0.046453 1.000000 1.000000 1.000000 1.000000 1.000000 1.000000 1.000000 1.000000 1.000000 1.000000 1.000000 1.000000 1.000000 1.000000 1.000000 1.000000 1.000000 1.000000 1.000000 1.000000 1.000000 1.000000 1.000000 1.000000 1.000000 1.000000 1.000000 1.000000 1.000000 1.000000 1.000000 1.000000 1.000000 1.000000 1.000000 1.000000 1.000000 1.000000 1.000000 1.000000 1.000000 1.000000 1.000000 1.000000 1.000000 1.000000 1.000000 1.000000 1.000000 1.000000 1.000000 1.000000 1.000000 1.000000 1.000000 1.000000 1.000000 1.000000 1.000000 1.000000 1.000000 1.000000 1.000000 1.000000 1.000000 1.000000 1.000000 1.000000 1.000000 1.000000 1.000000 1.000000 1.000000 1.000000 1.000000 1.000000 1.000000 1.000000 1.000000 1.000000 1.000000 1.000000 1.000000 1.000000 1.000000
-3.889942 -3.876941 -3.863940 -3.850938 -3.837937 -3.824935 -3.811934 -3.798932 -3.785931 -3.772929 -3.759928 -3.746927 -3.733925 -3.720924 -3.707922 -3.694774 -3.680997 -3.667220 -3.653442 -3.639665 -3.625888 -3.612111 -3.598333 -3.584556 -3.570779 -3.557002 -3.543198 -3.529358 -3.515517 -3.501677 -3.487837 -3.473997 -3.460157 -3.446317 -3.432477 -3.418636 -3.404796 -3.390956 -3.377116 -3.363276 -3.349436 -3.335595 -3.321755 -3.307915 -3.294075 -3.280235 -3.266395 -3.252554 -3.238714 -3.224874 -3.211034 -3.197194 -3.183354 -3.169514 -3.155673 -3.141833 -3.127993 -3.114153 -3.099925 -3.084950 -3.069975 -3.055000 -3.040025 -3.025050 -3.010075 -2.995100 -2.980125 -2.965150 -2.950175 -2.935200 -2.920225 -2.905250 -2.890275 -2.875301 -2.860326 -2.845351 -2.830376 -2.815401 -2.800426 -2.785451 -2.770476 -2.755501 -2.740526 -2.725551 -2.710576 -2.695601 -2.680626 -2.665651 -2.650676 -2.635701 -2.620726 -2.605865 -2.591220 -2.576576 -2.561932 -2.547288 -2.532644 -2.518000 -2.503356 -2.488711 -2.474067 -2.459423 -2.444779 -2.430135 -2.415491 -2.400847 -2.386203 -2.371558 -2.356914 -2.342270 -2.327626 -2.312982 -2.298338 -2.283694 -2.269050 -2.254405 -2.239543 -2.223266 -2.206989 -2.190712 -2.174435 -2.158693 -2.143341 -2.127989 -2.112637 -2.097285 -2.081933 -2.066979 -2.052124 -2.037269 -2.022413 -2.007558 -1.992702 -1.977847 -1.962992 -1.948136 -1.933281 -1.918425 -1.903570 -1.888715 -1.873859 -1.859004 -1.844148 -1.829293 -1.814438 -1.799582 -1.784727 -1.769871 -1.755016 -1.740161 -1.725305 -1.710450 -1.695594 -1.680739 -1.665883 -1.651028 -1.636173 -1.621317 -1.606462 -1.591606 -1.576751 -1.561896 -1.547040 -1.532185 -1.522799 -1.519828 -1.516857 -1.513886 -1.510915 -1.507943 -1.504972 -1.502001 -1.499030 -1.496058 -1.493087 -1.490116 -1.487145 -1.484173 -1.481202 -1.478231 -1.475260 -1.472289 -1.469317 -1.466346 -1.463375 -1.460404 -1.457432 -1.454461 -1.451490 -1.448519 -1.445548 -1.442576 -1.439605 -1.436634 -1.433663 -1.430691 -1.427720 -1.422819 -1.416590 -1.410361 -1.404132 -1.397903 -1.391673 -1.385444 -1.358749 -1.318046 -1.277343 -1.205661 -1.116824 -1.027987 -0.939151 -0.850314 -0.761477 -0.672640 -0.583803 -0.498719 -0.420585 -0.342452 -0.264319 -0.186185 -0.108052 -0.029918 0.048215 0.126348 0.204482 0.282615 0.360749 0.438882 0.517016 0.595149 0.673282 0.751416 0.829549 0.839241 0.835713 0.832185 0.828658 0.825130 0.821602 0.818075 0.814547 0.811019 0.807492 0.803964 0.800436 0.796909 0.793381 0.789853 0.786325 0.782798 0.779270 0.775742 0.772989 0.771287 0.769585 0.767883 0.766181 0.764479 0.762777 0.761075 0.759373 0.757671 0.755969 0.754267 0.752565 0.750863 0.749161 0.747459 0.745757 0.744695 0.748241 0.751787 0.755332 0.758878 0.762424 0.765970 0.769516 0.773062 0.776608 0.780153 0.783699 0.787245 0.790791 0.794337 0.797883 0.801428 0.804974 0.808796 0.814905 0.821015 0.827124 0.833234 0.839343 0.845453 0.851562 0.857672 0.863781 0.869891 0.876000 0.882110 0.888219 0.894329 0.900438 0.906548 0.912657 0.918767 0.924876
-3.890146 -3.877144 -3.864143 -3.851141 -3.838140 -3.825139 -3.812137 -3.799136 -3.786134 -3.773133 -3.760131 -3.747130 -3.734128 -3.721127 -3.708126 -3.695124 -3.682083 -3.668306 -3.654529 -3.640752 -3.626975 -3.613197 -3.599420 -3.585643 -3.571866 -3.558088 -3.544311 -3.530534 -3.516717 -3.502877 -3.489037 -3.475196 -3.461356 -3.447516 -3.433676 -3.419836 -3.405996 -3.392156 -3.378315 -3.364475 -3.350635 -3.336795 -3.322955 -3.309115 -3.295274 -3.281434 -3.267594 -3.253754 -3.239914 -3.226074 -3.212233 -3.198393 -3.184553 -3.170713 -3.156873 -3.143033 -3.129193 -3.115352 -3.100945 -3.086367 -3.071431 -3.056365 -3.041382 -3.026407 -3.011432 -2.996457 -2.981482 -2.966507 -2.951532 -2.936557 -2.921582 -2.906607 -2.891632 -2.876657 -2.861682 -2.846707 -2.831732 -2.816757 -2.801782 -2.786807 -2.771832 -2.756857 -2.741882 -2.726907 -2.711932 -2.696957 -2.681983 -2.667008 -2.652033 -2.637058 -2.622083 -2.607108 -2.592133 -2.577429 -2.562785 -2.548140 -2.533496 -2.518852 -2.504208 -2.489564 -2.474920 -2.460276 -2.445632 -2.430987 -2.416343 -2.401699 -2.387055 -2.372411 -2.357767 -2.343123 -2.328479 -2.313834 -2.299190 -2.284546 -2.269902 -2.255258 -2.239843 -2.223565 -2.207288 -2.191011 -2.174734 -2.158457 -2.142209 -2.126856 -2.111504 -2.096152 -2.080800 -2.065448 -2.050096 -2.034744 -2.019391 -2.004467 -1.989612 -1.974757 -1.959901 -1.945046 -1.930190 -1.915335 -1.900480 -1.885624 -1.870769 -1.855913 -1.841058 -1.826203 -1.811347 -1.796492 -1.781636 -1.766781 -1.751926 -1.737070 -1.722215 -1.707359 -1.692504 -1.677649 -1.662793 -1.647938 -1.633082 -1.618227 -1.603372 -1.588516 -1.573661 -1.558805 -1.543950 -1.529094 -1.522050 -1.519079 -1.516108 -1.513137 -1.510165 -1.507194 -1.504223 -1.501252 -1.498281 -1.495309 -1.492338 -1.489367 -1.486396 -1.483424 -1.480453 -1.477482 -1.474511 -1.471540 -1.468568 -1.465597 -1.462626 -1.459655 -1.456683 -1.453712 -1.450741 -1.447770 -1.444799 -1.441827 -1.438856 -1.434479 -1.428249 -1.422020 -1.415791 -1.409562 -1.403333 -1.397104 -1.390874 -1.384645 -1.378416 -1.372187 -1.338523 -1.297820 -1.257117 -1.216414 -1.160666 -1.071829 -0.982992 -0.894155 -0.805318 -0.716482 -0.627645 -0.538808 -0.449971 -0.361135 -0.272298 -0.183461 -0.094624 -0.013383 0.064750 0.142883 0.221017 0.299150 0.377284 0.455417 0.533550 0.611684 0.689817 0.767951 0.846084 0.924218 0.924791 0.921263 0.917735 0.914208 0.910680 0.907152 0.903625 0.900097 0.896569 0.893042 0.889514 0.885986 0.882458 0.878931 0.875403 0.871875 0.868348 0.864820 0.861292 0.857765 0.855700 0.853998 0.852296 0.850594 0.848892 0.847190 0.845488 0.843786 0.842084 0.840382 0.838680 0.836978 0.835276 0.833574 0.831872 0.830170 0.828468 0.826766 0.829494 0.833040 0.836585 0.840131 0.843677 0.847223 0.850769 0.854315 0.857861 0.861406 0.864952 0.868498 0.872044 0.875590 0.879136 0.882681 0.886227 0.889773 0.893699 0.899808 0.905918 0.912027 0.918137 0.924246 0.930356 0.936465 0.942575 0.948684 0.954794 0.960903 0.967013 0.973122 0.979232 0.985341 0.991451
-3.890349 -3.877348 -3.864346 -3.851345 -3.838343 -3.825342 -3.812340 -3.799339 -3.786337 -3.773336 -3.760335 -3.747333 -3.734332 -3.721330 -3.708329 -3.695327 -3.682326 -3.669324 -3.655616 -3.641838 -3.628061 -3.614284 -3.600507 -3.586729 -3.572952 -3.559175 -3.545398 -3.531620 -3.517843 -3.504066 -3.490236 -3.476396 -3.462556 -3.448716 -3.434875 -3.421035 -3.407195 -3.393355 -3.379515 -3.365675 -3.351835 -3.337994 -3.324154 -3.310314 -3.296474 -3.282634 -3.268794 -3.254953 -3.241113 -3.227273 -3.213433 -3.199593 -3.185753 -3.171912 -3.158072 -3.144232 -3.130392 -3.116335 -3.101757 -3.087179 -3.072601 -3.058024 -3.043021 -3.027954 -3.012888 -2.997822 -2.982838 -2.967863 -2.952888 -2.937913 -2.922938 -2.907963 -2.892988 -2.878014 -2.863039 -2.848064 -2.833089 -2.818114 -2.803139 -2.788164 -2.773189 -2.758214 -2.743239 -2.728264 -2.713289 -2.698314 -2.683339 -2.668364 -2.653389 -2.638414 -2.623439 -2.608464 -2.593489 -2.578514 -2.563637 -2.548993 -2.534349 -2.519705 -2.505061 -2.490416 -2.475772 -2.461128 -2.446484 -2.431840 -2.417196 -2.402552 -2.387908 -2.373263 -2.358619 -2.343975 -2.329331 -2.314687 -2.300043 -2.285399 -2.270754 -2.256110 -2.240142 -2.223865 -2.207588 -2.191311 -2.175034 -2.158756 -2.142479 -2.126202 -2.110372 -2.095019 -2.079667 -2.064315 -2.048963 -2.033611 -2.018259 -2.002907 -1.987554 -1.972202 -1.956850 -1.941955 -1.927100 -1.912245 -1.897389 -1.882534 -1.867678 -1.852823 -1.837968 -1.823112 -1.808257 -1.793401 -1.778546 -1.763691 -1.748835 -1.733980 -1.719124 -1.704269 -1.689414 -1.674558 -1.659703 -1.644847 -1.629992 -1.615137 -1.600281 -1.585426 -1.570570 -1.555715 -1.540860 -1.526004 -1.521301 -1.518330 -1.515359 -1.512388 -1.509416 -1.506445 -1.503474 -1.500503 -1.497532 -1.494560 -1.491589 -1.488618 -1.485647 -1.482675 -1.479704 -1.476733 -1.473762 -1.470791 -1.467819 -1.464848 -1.461877 -1.458906 -1.455934 -1.452963 -1.449992 -1.446138 -1.439909 -1.433680 -1.427450 -1.421221 -1.414992 -1.408763 -1.402534 -1.396305 -1.390075 -1.383846 -1.377617 -1.371388 -1.365159 -1.358930 -1.318298 -1.277594 -1.236891 -1.196188 -1.155485 -1.114782 -1.026833 -0.937997 -0.849160 -0.760323 -0.671486 -0.582650 -0.493813 -0.404976 -0.316139 -0.227302 -0.138466 -0.049629 0.039208 0.128045 0.216881 0.305718 0.393819 0.471952 0.550085 0.628219 0.706352 0.784486 0.862619 0.940752 1.013868 1.010341 1.006813 1.003285 0.999758 0.996230 0.992702 0.989175 0.985647 0.982119 0.978591 0.975064 0.971536 0.968008 0.964481 0.960953 0.957425 0.953898 0.950370 0.946842 0.943315 0.940112 0.938410 0.936708 0.935006 0.933304 0.931602 0.929900 0.928198 0.926496 0.924794 0.923092 0.921390 0.919688 0.917986 0.916284 0.914582 0.912880 0.911178 0.909476 0.910747 0.914293 0.917838 0.921384 0.924930 0.928476 0.932022 0.935568 0.939114 0.942659 0.946205 0.949751 0.953297 0.956843 0.960389 0.963934 0.967480 0.971026 0.974572 0.978602 0.984711 0.990821 0.996930 1.003040 1.009149 1.015259 1.021368 1.027478 1.033587 1.039697 1.045806 1.051916 1.058025
-3.890552 -3.877551 -3.864549 -3.851548 -3.838546 -3.825545 -3.812544 -3.799542 -3.786541 -3.773539 -3.760538 -3.747536 -3.734535 -3.721534 -3.708532 -3.695531 -3.682529 -3.669528 -3.656526 -3.642925 -3.629148 -3.615370 -3.601593 -3.587816 -3.574039 -3.560262 -3.546484 -3.532707 -3.518930 -3.505153 -3.491375 -3.477595 -3.463755 -3.449915 -3.436075 -3.422235 -3.408395 -3.394554 -3.380714 -3.366874 -3.353034 -3.339194 -3.325354 -3.311514 -3.297673 -3.283833 -3.269993 -3.256153 -3.242313 -3.228473 -3.214632 -3.200792 -3.186952 -3.173112 -3.159272 -3.145432 -3.131591 -3.117147 -3.102569 -3.087991 -3.073414 -3.058836 -3.044258 -3.029676 -3.014610 -2.999544 -2.984478 -2.969411 -2.954345 -2.939279 -2.924295 -2.909320 -2.894345 -2.879370 -2.864395 -2.849420 -2.834445 -2.819470 -2.804495 -2.789520 -2.774545 -2.759570 -2.744595 -2.729620 -2.714645 -2.699670 -2.684696 -2.669721 -2.654746 -2.639771 -2.624796 -2.609821 -2.594846 -2.579871 -2.564896 -2.549921 -2.535201 -2.520557 -2.505913 -2.491269 -2.476625 -2.461981 -2.447337 -2.432692 -2.418048 -2.403404 -2.388760 -2.374116 -2.359472 -2.344828 -2.330183 -2.315539 -2.300895 -2.286251 -2.271607 -2.256719 -2.240442 -2.224164 -2.207887 -2.191610 -2.175333 -2.159056 -2.142779 -2.126502 -2.110224 -2.093947 -2.078535 -2.063183 -2.047830 -2.032478 -2.017126 -2.001774 -1.986422 -1.971070 -1.955718 -1.940365 -1.925013 -1.909661 -1.894309 -1.879443 -1.864588 -1.849733 -1.834877 -1.820022 -1.805166 -1.790311 -1.775456 -1.760600 -1.745745 -1.730889 -1.716034 -1.701179 -1.686323 -1.671468 -1.656612 -1.641757 -1.626902 -1.612046 -1.597191 -1.582335 -1.567480 -1.552625 -1.537769 -1.523524 -1.520552 -1.517581 -1.514610 -1.511639 -1.508667 -1.505696 -1.502725 -1.499754 -1.496783 -1.493811 -1.490840 -1.487869 -1.484898 -1.481926 -1.478955 -1.475984 -1.473013 -1.470042 -1.467070 -1.464099 -1.461128 -1.457797 -1.451568 -1.445339 -1.439110 -1.432881 -1.426651 -1.420422 -1.414193 -1.407964 -1.401735 -1.395506 -1.389277 -1.383047 -1.376818 -1.370589 -1.364360 -1.358131 -1.351902 -1.338775 -1.298072 -1.257369 -1.216666 -1.175963 -1.135260 -1.094557 -1.053854 -0.981838 -0.893001 -0.804165 -0.715328 -0.626491 -0.537654 -0.448817 -0.359981 -0.271144 -0.182307 -0.093470 -0.004634 0.084203 0.173040 0.261877 0.350713 0.439550 0.528387 0.617224 0.706061 0.794897 0.879154 0.957287 1.035421 1.099418 1.095891 1.092363 1.088835 1.085308 1.081780 1.078252 1.074724 1.071197 1.067669 1.064141 1.060614 1.057086 1.053558 1.050031 1.046503 1.042975 1.039448 1.035920 1.032392 1.028864 1.025337 1.022823 1.021121 1.019419 1.017717 1.016015 1.014313 1.012611 1.010909 1.009207 1.007505 1.005803 1.004101 1.002399 1.000697 0.998995 0.997293 0.995591 0.993889 0.992187 0.992000 0.995546 0.999091 1.002637 1.006183 1.009729 1.013275 1.016821 1.020367 1.023912 1.027458 1.031004 1.034550 1.038096 1.041642 1.045187 1.048733 1.052279 1.055825 1.059371 1.063504 1.069614 1.075723 1.081833 1.087942 1.094052 1.100161 1.106271 1.112380 1.118490 1.124599
-3.890756 -3.877754 -3.864753 -3.851751 -3.838750 -3.825748 -3.812747 -3.799745 -3.786744 -3.773743 -3.760741 -3.747740 -3.734738 -3.721737 -3.708735 -3.695734 -3.682732 -3.669731 -3.656730 -3.643728 -3.630234 -3.616457 -3.602680 -3.588903 -3.575125 -3.561348 -3.547571 -3.533794 -3.520016 -3.506239 -3.492462 -3.478685 -3.464907 -3.451115 -3.437274 -3.423434 -3.409594 -3.395754 -3.381914 -3.368074 -3.354233 -3.340393 -3.326553 -3.312713 -3.298873 -3.285033 -3.271193 -3.257352 -3.243512 -3.229672 -3.215832 -3.201992 -3.188152 -3.174311 -3.160471 -3.146631 -3.132536 -3.117959 -3.103381 -3.088803 -3.074226 -3.059648 -3.045070 -3.030492 -3.015915 -3.001266 -2.986200 -2.971133 -2.956067 -2.941001 -2.925935 -2.910868 -2.895802 -2.880736 -2.865752 -2.850777 -2.835802 -2.820827 -2.805852 -2.790877 -2.775902 -2.760927 -2.745952 -2.730977 -2.716002 -2.701027 -2.686052 -2.671077 -2.656102 -2.641127 -2.626152 -2.611177 -2.596202 -2.581227 -2.566252 -2.551277 -2.536302 -2.521410 -2.506766 -2.492121 -2.477477 -2.462833 -2.448189 -2.433545 -2.418901 -2.404257 -2.389612 -2.374968 -2.360324 -2.345680 -2.331036 -2.316392 -2.301748 -2.287104 -2.272459 -2.257018 -2.240741 -2.224464 -2.208187 -2.191910 -2.175632 -2.159355 -2.143078 -2.126801 -2.110524 -2.094247 -2.077970 -2.062050 -2.046698 -2.031346 -2.015994 -2.000641 -1.985289 -1.969937 -1.954585 -1.939233 -1.923881 -1.908529 -1.893176 -1.877824 -1.862472 -1.847120 -1.831787 -1.816931 -1.802076 -1.787221 -1.772365 -1.757510 -1.742654 -1.727799 -1.712944 -1.698088 -1.683233 -1.668377 -1.653522 -1.638667 -1.623811 -1.608956 -1.594100 -1.579245 -1.564390 -1.549534 -1.534679 -1.522775 -1.519803 -1.516832 -1.513861 -1.510890 -1.507918 -1.504947 -1.501976 -1.499005 -1.496034 -1.493062 -1.490091 -1.487120 -1.484149 -1.481177 -1.478206 -1.475235 -1.472264 -1.469293 -1.463227 -1.456998 -1.450769 -1.444540 -1.438311 -1.432082 -1.425853 -1.419623 -1.413394 -1.407165 -1.400936 -1.394707 -1.388478 -1.382248 -1.376019 -1.369790 -1.363561 -1.357332 -1.351103 -1.344874 -1.338644 -1.318549 -1.277846 -1.237143 -1.196440 -1.155737 -1.115034 -1.074331 -1.033628 -0.992925 -0.936843 -0.848006 -0.759169 -0.670332 -0.581496 -0.492659 -0.403822 -0.314985 -0.226149 -0.137312 -0.048475 0.040362 0.129198 0.218035 0.306872 0.395709 0.484546 0.573382 0.662219 0.751056 0.839893 0.928729 1.017566 1.106403 1.160263 1.166243 1.172224 1.174385 1.170857 1.167330 1.163802 1.160274 1.156747 1.153219 1.149691 1.146164 1.142636 1.139108 1.135581 1.132053 1.128525 1.124997 1.121470 1.117942 1.114414 1.110887 1.107359 1.105533 1.103831 1.102129 1.100427 1.098725 1.097023 1.095321 1.093619 1.091917 1.090215 1.088513 1.086811 1.085109 1.083407 1.081705 1.080003 1.078301 1.076599 1.074897 1.073253 1.076799 1.080344 1.083890 1.087436 1.090982 1.094528 1.098074 1.101619 1.105165 1.108711 1.112257 1.115803 1.119349 1.122895 1.126440 1.129986 1.133532 1.137078 1.140624 1.144170 1.148407 1.154517 1.160626 1.166736 1.172845 1.178955 1.185064 1.191174
-3.891121 -3.877957 -3.864956 -3.851954 -3.838953 -3.825952 -3.812950 -3.799949 -3.786947 -3.773946 -3.760944 -3.747943 -3.734942 -3.721940 -3.708939 -3.695937 -3.682936 -3.669934 -3.656933 -3.643931 -3.630930 -3.617544 -3.603766 -3.589989 -3.576212 -3.562435 -3.548657 -3.534880 -3.521103 -3.507326 -3.493548 -3.479771 -3.465994 -3.452217 -3.438440 -3.424634 -3.410794 -3.396953 -3.383113 -3.369273 -3.355433 -3.341593 -3.327753 -3.313912 -3.300072 -3.286232 -3.272392 -3.258552 -3.244712 -3.230872 -3.217031 -3.203191 -3.189351 -3.175511 -3.161671 -3.147831 -3.133348 -3.118771 -3.104193 -3.089615 -3.075038 -3.060460 -3.045882 -3.031304 -3.016727 -3.002149 -2.987571 -2.972855 -2.957789 -2.942723 -2.927657 -2.912590 -2.897524 -2.882458 -2.867392 -2.852325 -2.837259 -2.822193 -2.807208 -2.792233 -2.777258 -2.762283 -2.747308 -2.732333 -2.717358 -2.702383 -2.687409 -2.672434 -2.657459 -2.642484 -2.627509 -2.612534 -2.597559 -2.582584 -2.567609 -2.552634 -2.537659 -2.522684 -2.507709 -2.492974 -2.478330 -2.463686 -2.449041 -2.434397 -2.419753 -2.405109 -2.390465 -2.375821 -2.361177 -2.346533 -2.331888 -2.317244 -2.302600 -2.287956 -2.273312 -2.257318 -2.241040 -2.224763 -2.208486 -2.192209 -2.175932 -2.159655 -2.143378 -2.127101 -2.110823 -2.094546 -2.078269 -2.061992 -2.045715 -2.030213 -2.014861 -1.999509 -1.984157 -1.968804 -1.953452 -1.938100 -1.922748 -1.907396 -1.892044 -1.876692 -1.861339 -1.845987 -1.830635 -1.815283 -1.799931 -1.784579 -1.769275 -1.754420 -1.739564 -1.724709 -1.709853 -1.694998 -1.680142 -1.665287 -1.650432 -1.635576 -1.620721 -1.605865 -1.591010 -1.576155 -1.561299 -1.546444 -1.531588 -1.522026 -1.519054 -1.516083 -1.513112 -1.510141 -1.507169 -1.504198 -1.501227 -1.498256 -1.495285 -1.492313 -1.489342 -1.486371 -1.483400 -1.480428 -1.474887 -1.468658 -1.462429 -1.456199 -1.449970 -1.443741 -1.437512 -1.431283 -1.425054 -1.418824 -1.412595 -1.406366 -1.400137 -1.393908 -1.387679 -1.381450 -1.375220 -1.368991 -1.362762 -1.356533 -1.350304 -1.344075 -1.337845 -1.331616 -1.325387 -1.298324 -1.257621 -1.216918 -1.176215 -1.135512 -1.094809 -1.054106 -1.013403 -0.972700 -0.931997 -0.891294 -0.803011 -0.714174 -0.625337 -0.536500 -0.447664 -0.358827 -0.269990 -0.181153 -0.092316 -0.003480 0.085357 0.174194 0.263031 0.351867 0.440704 0.529541 0.618378 0.707214 0.796051 0.884888 0.973725 1.062562 1.110085 1.147551 1.165868 1.171849 1.177830 1.183811 1.189792 1.195773 1.201753 1.207734 1.213715 1.219696 1.225677 1.228186 1.224658 1.221130 1.217603 1.214075 1.210547 1.207020 1.203492 1.199964 1.196437 1.192909 1.189946 1.188244 1.186542 1.184840 1.183138 1.181436 1.179734 1.178032 1.176330 1.174628 1.172926 1.171224 1.169522 1.167820 1.166118 1.164416 1.162714 1.161012 1.159310 1.157608 1.155906 1.158052 1.161597 1.165143 1.168689 1.172235 1.175781 1.179327 1.182872 1.186418 1.189964 1.193510 1.197056 1.200602 1.204148 1.207693 1.211239 1.214785 1.218331 1.221877 1.225423 1.228968 1.233310 1.239420 1.245529 1.251639 1.257748
-3.892526 -3.878956 -3.865386 -3.852158 -3.839156 -3.826155 -3.813153 -3.800152 -3.787151 -3.774149 -3.761148 -3.748146 -3.735145 -3.722143 -3.709142 -3.696140 -3.683139 -3.670138 -3.657136 -3.644135 -3.631133 -3.618132 -3.604853 -3.591076 -3.577298 -3.563521 -3.549744 -3.535967 -3.522190 -3.508412 -3.494635 -3.480858 -3.467081 -3.453303 -3.439526 -3.425749 -3.411972 -3.398153 -3.384313 -3.370473 -3.356632 -3.342792 -3.328952 -3.315112 -3.301272 -3.287432 -3.273591 -3.259751 -3.245911 -3.232071 -3.218231 -3.204391 -3.190551 -3.176710 -3.162870 -3.148738 -3.134160 -3.119583 -3.105005 -3.090427 -3.075850 -3.061272 -3.046694 -3.032116 -3.017539 -3.002961 -2.988383 -2.973806 -2.959228 -2.944445 -2.929379 -2.914312 -2.899246 -2.884180 -2.869114 -2.854047 -2.838981 -2.823915 -2.808848 -2.793782 -2.778716 -2.763650 -2.748665 -2.733690 -2.718715 -2.703740 -2.688765 -2.673790 -2.658815 -2.643840 -2.628865 -2.613890 -2.598915 -2.583940 -2.568965 -2.553990 -2.539015 -2.524040 -2.509066 -2.494091 -2.479182 -2.464538 -2.449894 -2.435250 -2.420606 -2.405962 -2.391317 -2.376673 -2.362029 -2.347385 -2.332741 -2.318097 -2.303453 -2.288809 -2.273894 -2.257617 -2.241340 -2.225063 -2.208786 -2.192509 -2.176231 -2.159954 -2.143677 -2.127400 -2.111123 -2.094846 -2.078569 -2.062291 -2.046014 -2.029737 -2.013728 -1.998376 -1.983024 -1.967672 -1.952320 -1.936968 -1.921615 -1.906263 -1.890911 -1.875559 -1.860207 -1.844855 -1.829503 -1.814150 -1.798798 -1.783446 -1.768094 -1.752742 -1.737390 -1.722038 -1.706763 -1.691908 -1.677052 -1.662197 -1.647341 -1.632486 -1.617630 -1.602775 -1.587920 -1.573064 -1.558209 -1.543353 -1.528498 -1.521277 -1.518305 -1.515334 -1.512363 -1.509392 -1.506420 -1.503449 -1.500478 -1.497507 -1.494535 -1.491564 -1.486546 -1.480317 -1.474088 -1.467859 -1.461630 -1.455400 -1.449171 -1.442942 -1.436713 -1.430484 -1.424255 -1.418026 -1.411796 -1.405567 -1.399338 -1.393109 -1.386880 -1.380651 -1.374421 -1.368192 -1.361963 -1.355734 -1.349505 -1.343276 -1.337046 -1.330817 -1.324588 -1.318359 -1.312130 -1.278098 -1.237395 -1.196692 -1.155989 -1.115286 -1.074583 -1.033880 -0.993177 -0.952474 -0.911771 -0.871068 -0.830365 -0.758015 -0.669179 -0.580342 -0.491505 -0.402668 -0.313831 -0.224995 -0.136158 -0.047321 0.041516 0.130352 0.219189 0.308026 0.396863 0.485699 0.574536 0.663373 0.752210 0.841047 0.929883 1.018720 1.056889 1.094355 1.131821 1.165493 1.171474 1.177455 1.183436 1.189417 1.195398 1.201378 1.207359 1.213340 1.219321 1.225302 1.231283 1.237263 1.243244 1.249225 1.255206 1.261187 1.267168 1.273149 1.279129 1.281987 1.278459 1.274931 1.272657 1.270955 1.269253 1.267551 1.265848 1.264146 1.262444 1.260742 1.259040 1.257338 1.255636 1.253934 1.252232 1.250530 1.248828 1.247126 1.245424 1.243722 1.242020 1.240318 1.238616 1.239305 1.242850 1.246396 1.249942 1.253488 1.257034 1.260580 1.264125 1.267671 1.271217 1.274763 1.278309 1.281855 1.285401 1.288946 1.292492 1.296038 1.299584 1.299421 1.298765 1.298109 1.297454 1.292085 1.289430
-3.893932 -3.880362 -3.866791 -3.853221 -3.839651 -3.826358 -3.813357 -3.800355 -3.787354 -3.774352 -3.761351 -3.748349 -3.735348 -3.722347 -3.709345 -3.696344 -3.683342 -3.670341 -3.657339 -3.644338 -3.631337 -3.618335 -3.605334 -3.592162 -3.578385 -3.564608 -3.550831 -3.537053 -3.523276 -3.509499 -3.495722 -3.481944 -3.468167 -3.454390 -3.440613 -3.426835 -3.413058 -3.399281 -3.385504 -3.371672 -3.357832 -3.343992 -3.330152 -3.316311 -3.302471 -3.288631 -3.274791 -3.260951 -3.247111 -3.233270 -3.219430 -3.205590 -3.191750 -3.177910 -3.164070 -3.149550 -3.134972 -3.120395 -3.105817 -3.091239 -3.076662 -3.062084 -3.047506 -3.032928 -3.018351 -3.003773 -2.989195 -2.974618 -2.960040 -2.945462 -2.930885 -2.916034 -2.900968 -2.885902 -2.870836 -2.855769 -2.840703 -2.825637 -2.810571 -2.795504 -2.780438 -2.765372 -2.750305 -2.735239 -2.720173 -2.705107 -2.690122 -2.675147 -2.660172 -2.645197 -2.630222 -2.615247 -2.600272 -2.585297 -2.570322 -2.555347 -2.540372 -2.525397 -2.510422 -2.495447 -2.480472 -2.465497 -2.450746 -2.436102 -2.421458 -2.406814 -2.392170 -2.377526 -2.362882 -2.348238 -2.333593 -2.318949 -2.304305 -2.289661 -2.274194 -2.257917 -2.241639 -2.225362 -2.209085 -2.192808 -2.176531 -2.160254 -2.143977 -2.127699 -2.111422 -2.095145 -2.078868 -2.062591 -2.046314 -2.030037 -2.013759 -1.997482 -1.981891 -1.966539 -1.951187 -1.935835 -1.920483 -1.905131 -1.889779 -1.874426 -1.859074 -1.843722 -1.828370 -1.813018 -1.797666 -1.782314 -1.766961 -1.751609 -1.736257 -1.720905 -1.705553 -1.690201 -1.674849 -1.659496 -1.644251 -1.629396 -1.614540 -1.599685 -1.584829 -1.569974 -1.555119 -1.540263 -1.525408 -1.520527 -1.517556 -1.514585 -1.511614 -1.508643 -1.505671 -1.502700 -1.498206 -1.491976 -1.485747 -1.479518 -1.473289 -1.467060 -1.460831 -1.454602 -1.448372 -1.442143 -1.435914 -1.429685 -1.423456 -1.417227 -1.410997 -1.404768 -1.398539 -1.392310 -1.386081 -1.379852 -1.373622 -1.367393 -1.361164 -1.354935 -1.348706 -1.342477 -1.336248 -1.330018 -1.323789 -1.317560 -1.311331 -1.305102 -1.298576 -1.257873 -1.217170 -1.176467 -1.135764 -1.095061 -1.054358 -1.013655 -0.972952 -0.932249 -0.891546 -0.850843 -0.810140 -0.769437 -0.713020 -0.624183 -0.535346 -0.446510 -0.357673 -0.268836 -0.179999 -0.091163 -0.002326 0.086511 0.175348 0.264184 0.353021 0.441858 0.530695 0.619532 0.708368 0.797205 0.886042 0.966226 1.003692 1.041158 1.078624 1.116090 1.153556 1.171099 1.177080 1.183061 1.189042 1.195022 1.201003 1.206984 1.212965 1.218946 1.224927 1.230908 1.236888 1.242869 1.248850 1.254831 1.260812 1.266793 1.272773 1.278754 1.284735 1.290716 1.289476 1.272020 1.272854 1.273689 1.274523 1.275358 1.276192 1.277027 1.277861 1.278696 1.279530 1.280365 1.281199 1.282034 1.282868 1.283702 1.284537 1.285371 1.286206 1.287040 1.287875 1.288709 1.289544 1.296198 1.295542 1.294886 1.294230 1.293574 1.292918 1.292262 1.291607 1.290951 1.290295 1.289639 1.288983 1.288327 1.287671 1.287016 1.286360 1.285704 1.285048 1.284392 1.282787 1.273054 1.263320
-3.895337 -3.881767 -3.868197 -3.854627 -3.841057 -3.827486 -3.813916 -3.800559 -3.787557 -3.774556 -3.761554 -3.748553 -3.735551 -3.722550 -3.709548 -3.696547 -3.683546 -3.670544 -3.657543 -3.644541 -3.631540 -3.618538 -3.605537 -3.592535 -3.579472 -3.565694 -3.551917 -3.538140 -3.524363 -3.510585 -3.496808 -3.483031 -3.469254 -3.455477 -3.441699 -3.427922 -3.414145 -3.400368 -3.386590 -3.372813 -3.359031 -3.345191 -3.331351 -3.317511 -3.303671 -3.289831 -3.275990 -3.262150 -3.248310 -3.234470 -3.220630 -3.206790 -3.192949 -3.179109 -3.164940 -3.150362 -3.135784 -3.121207 -3.106629 -3.092051 -3.077474 -3.062896 -3.048318 -3.033740 -3.019163 -3.004585 -2.990007 -2.975430 -2.960852 -2.946274 -2.931697 -2.917119 -2.902541 -2.887624 -2.872558 -2.857491 -2.842425 -2.827359 -2.812293 -2.797226 -2.782160 -2.767094 -2.752027 -2.736961 -2.721895 -2.706829 -2.691762 -2.676696 -2.661630 -2.646564 -2.631578 -2.616603 -2.601628 -2.586653 -2.571678 -2.556703 -2.541728 -2.526753 -2.511779 -2.496804 -2.481829 -2.466854 -2.451879 -2.436955 -2.422311 -2.407667 -2.393022 -2.378378 -2.363734 -2.349090 -2.334446 -2.319802 -2.305158 -2.290514 -2.274493 -2.258216 -2.241939 -2.225662 -2.209385 -2.193107 -2.176830 -2.160553 -2.144276 -2.127999 -2.111722 -2.095445 -2.079167 -2.062890 -2.046613 -2.030336 -2.014059 -1.997782 -1.981505 -1.965407 -1.950055 -1.934702 -1.919350 -1.903998 -1.888646 -1.873294 -1.857942 -1.842590 -1.827237 -1.811885 -1.796533 -1.781181 -1.765829 -1.750477 -1.735124 -1.719772 -1.704420 -1.689068 -1.673716 -1.658364 -1.643012 -1.627659 -1.612307 -1.596955 -1.581739 -1.566884 -1.552028 -1.537173 -1.522750 -1.519778 -1.516807 -1.513836 -1.509865 -1.503636 -1.497407 -1.491178 -1.484948 -1.478719 -1.472490 -1.466261 -1.460032 -1.453803 -1.447573 -1.441344 -1.435115 -1.428886 -1.422657 -1.416428 -1.410198 -1.403969 -1.397740 -1.391511 -1.385282 -1.379053 -1.372824 -1.366594 -1.360365 -1.354136 -1.347907 -1.341678 -1.335449 -1.329219 -1.322990 -1.316761 -1.310532 -1.304303 -1.298074 -1.291844 -1.278350 -1.237647 -1.196944 -1.156241 -1.115538 -1.074835 -1.034132 -0.993429 -0.952726 -0.912023 -0.871320 -0.830617 -0.789914 -0.749211 -0.708508 -0.667805 -0.579188 -0.490351 -0.401514 -0.312678 -0.223841 -0.135004 -0.046167 0.042669 0.131506 0.220343 0.309180 0.398017 0.486853 0.575690 0.664527 0.753364 0.842200 0.913030 0.950496 0.987962 1.025428 1.062894 1.100360 1.137826 1.170724 1.176705 1.182686 1.188667 1.194647 1.200628 1.206609 1.212590 1.218571 1.224552 1.230532 1.236513 1.242494 1.248475 1.254456 1.260437 1.266418 1.272398 1.278379 1.284360 1.278910 1.260369 1.241828 1.231468 1.232302 1.233137 1.233971 1.234806 1.235640 1.236475 1.237309 1.238144 1.238978 1.239813 1.240647 1.241482 1.242316 1.243151 1.243985 1.244820 1.245654 1.246489 1.247323 1.260558 1.274563 1.281169 1.280513 1.279857 1.279201 1.278545 1.277889 1.277233 1.276578 1.275922 1.275266 1.274610 1.273954 1.273298 1.272642 1.271986 1.271331 1.270675 1.267606 1.257873 1.248139
-3.895528 -3.883043 -3.869602 -3.856032 -3.842462 -3.828892 -3.815322 -3.801752 -3.788181 -3.774759 -3.761757 -3.748756 -3.735755 -3.722753 -3.709752 -3.696750 -3.683749 -3.670747 -3.657746 -3.644745 -3.631743 -3.618742 -3.605740 -3.592739 -3.579737 -3.566736 -3.553004 -3.539227 -3.525449 -3.511672 -3.497895 -3.484118 -3.470340 -3.456563 -3.442786 -3.429009 -3.415231 -3.401454 -3.387677 -3.373900 -3.360122 -3.346345 -3.332550 -3.318710 -3.304870 -3.291030 -3.277190 -3.263350 -3.249510 -3.235669 -3.221829 -3.207989 -3.194149 -3.180309 -3.165752 -3.151174 -3.136596 -3.122019 -3.107441 -3.092863 -3.078286 -3.063708 -3.049130 -3.034552 -3.019975 -3.005397 -2.990819 -2.976242 -2.961664 -2.947086 -2.932509 -2.917931 -2.903353 -2.888775 -2.874198 -2.859213 -2.844147 -2.829081 -2.814015 -2.798948 -2.783882 -2.768816 -2.753750 -2.738683 -2.723617 -2.708551 -2.693484 -2.678418 -2.663352 -2.648286 -2.633219 -2.618153 -2.603087 -2.588021 -2.573035 -2.558060 -2.543085 -2.528110 -2.513135 -2.498160 -2.483185 -2.468210 -2.453235 -2.438260 -2.423285 -2.408519 -2.393875 -2.379231 -2.364587 -2.349943 -2.335298 -2.320654 -2.306010 -2.291070 -2.274793 -2.258515 -2.242238 -2.225961 -2.209684 -2.193407 -2.177130 -2.160853 -2.144575 -2.128298 -2.112021 -2.095744 -2.079467 -2.063190 -2.046913 -2.030636 -2.014358 -1.998081 -1.981804 -1.965527 -1.949250 -1.933570 -1.918218 -1.902865 -1.887513 -1.872161 -1.856809 -1.841457 -1.826105 -1.810753 -1.795400 -1.780048 -1.764696 -1.749344 -1.733992 -1.718640 -1.703288 -1.687935 -1.672583 -1.657231 -1.641879 -1.626527 -1.611175 -1.595823 -1.580470 -1.565118 -1.549766 -1.534414 -1.521524 -1.515295 -1.509066 -1.502837 -1.496608 -1.490379 -1.484149 -1.477920 -1.471691 -1.465462 -1.459233 -1.453004 -1.446774 -1.440545 -1.434316 -1.428087 -1.421858 -1.415629 -1.409400 -1.403170 -1.396941 -1.390712 -1.384483 -1.378254 -1.372025 -1.365795 -1.359566 -1.353337 -1.347108 -1.340879 -1.334650 -1.328420 -1.322191 -1.315962 -1.309733 -1.303504 -1.297275 -1.291046 -1.284816 -1.278587 -1.258125 -1.217422 -1.176719 -1.136016 -1.095313 -1.054610 -1.013907 -0.973204 -0.932501 -0.891798 -0.851095 -0.810392 -0.769689 -0.728986 -0.688283 -0.647580 -0.606877 -0.534193 -0.445356 -0.356519 -0.267682 -0.178846 -0.090009 -0.001172 0.087665 0.176502 0.265338 0.354175 0.443012 0.531849 0.620685 0.709522 0.798359 0.859834 0.897300 0.934766 0.972232 1.009698 1.047164 1.084630 1.122095 1.159561 1.176330 1.182311 1.188291 1.194272 1.200253 1.206234 1.212215 1.218196 1.224177 1.230157 1.236138 1.242119 1.248100 1.254081 1.260062 1.266042 1.272023 1.278004 1.268345 1.249803 1.231262 1.212721 1.194180 1.190916 1.191751 1.192585 1.193420 1.194254 1.195089 1.195923 1.196758 1.197592 1.198426 1.199261 1.200095 1.200930 1.201764 1.202599 1.203433 1.204268 1.206580 1.220584 1.234589 1.248593 1.262597 1.266139 1.265484 1.264828 1.264172 1.263516 1.262860 1.262204 1.261548 1.260893 1.260237 1.259581 1.258925 1.258269 1.257613 1.256957 1.252425 1.242692 1.232958
-3.895459 -3.882974 -3.870488 -3.857437 -3.843867 -3.830297 -3.816727 -3.803157 -3.789587 -3.776017 -3.762447 -3.748959 -3.735958 -3.722956 -3.709955 -3.696954 -3.683952 -3.670951 -3.657949 -3.644948 -3.631946 -3.618945 -3.605943 -3.592942 -3.579941 -3.566939 -3.553938 -3.540313 -3.526536 -3.512759 -3.498981 -3.485204 -3.471427 -3.457650 -3.443872 -3.430095 -3.416318 -3.402541 -3.388763 -3.374986 -3.361209 -3.347432 -3.333655 -3.319877 -3.306070 -3.292229 -3.278389 -3.264549 -3.250709 -3.236869 -3.223029 -3.209189 -3.195348 -3.181141 -3.166564 -3.151986 -3.137408 -3.122831 -3.108253 -3.093675 -3.079098 -3.064520 -3.049942 -3.035364 -3.020787 -3.006209 -2.991631 -2.977054 -2.962476 -2.947898 -2.933321 -2.918743 -2.904165 -2.889587 -2.875010 -2.860432 -2.845854 -2.830803 -2.815737 -2.800670 -2.785604 -2.770538 -2.755472 -2.740405 -2.725339 -2.710273 -2.695206 -2.680140 -2.665074 -2.650008 -2.634941 -2.619875 -2.604809 -2.589743 -2.574676 -2.559610 -2.544544 -2.529477 -2.514492 -2.499517 -2.484542 -2.469567 -2.454592 -2.439617 -2.424642 -2.409667 -2.394727 -2.380083 -2.365439 -2.350795 -2.336151 -2.321507 -2.306863 -2.291369 -2.275092 -2.258815 -2.242538 -2.226261 -2.209984 -2.193706 -2.177429 -2.161152 -2.144875 -2.128598 -2.112321 -2.096044 -2.079766 -2.063489 -2.047212 -2.030935 -2.014658 -1.998381 -1.982104 -1.965826 -1.949549 -1.933272 -1.917085 -1.901733 -1.886381 -1.871029 -1.855676 -1.840324 -1.824972 -1.809620 -1.794268 -1.778916 -1.763564 -1.748211 -1.732859 -1.717507 -1.702155 -1.686803 -1.671451 -1.656099 -1.640746 -1.625394 -1.610042 -1.594690 -1.579338 -1.563986 -1.548634 -1.533281 -1.520674 -1.510788 -1.501788 -1.493258 -1.484727 -1.477121 -1.470892 -1.464663 -1.458434 -1.452205 -1.445976 -1.439746 -1.433517 -1.427288 -1.421059 -1.414830 -1.408601 -1.402371 -1.396142 -1.389913 -1.383684 -1.377455 -1.371226 -1.364996 -1.358767 -1.352538 -1.346309 -1.340080 -1.333851 -1.327622 -1.321392 -1.315163 -1.308934 -1.302705 -1.296476 -1.290247 -1.284017 -1.277788 -1.271559 -1.265330 -1.237899 -1.197196 -1.156493 -1.115790 -1.075087 -1.034384 -0.993681 -0.952978 -0.912275 -0.871572 -0.830869 -0.790166 -0.749463 -0.708760 -0.668057 -0.627354 -0.586651 -0.545948 -0.489197 -0.400361 -0.311524 -0.222687 -0.133850 -0.045013 0.043823 0.132660 0.221497 0.310334 0.399170 0.488007 0.576844 0.665681 0.754518 0.806637 0.844103 0.881569 0.919035 0.956501 0.993967 1.031433 1.068899 1.106365 1.143831 1.175955 1.181936 1.187916 1.193897 1.199878 1.205859 1.211840 1.217821 1.223801 1.229782 1.235763 1.241744 1.247725 1.253706 1.259687 1.265667 1.271648 1.257779 1.239238 1.220697 1.202155 1.183614 1.165073 1.149530 1.150364 1.151199 1.152033 1.152868 1.153702 1.154537 1.155371 1.156206 1.157040 1.157875 1.158709 1.159544 1.160378 1.161213 1.162047 1.166606 1.180610 1.194615 1.208619 1.222623 1.236628 1.250632 1.251110 1.250455 1.249799 1.249143 1.248487 1.247831 1.247175 1.246519 1.245864 1.245208 1.244552 1.243896 1.243240 1.237244 1.227511 1.217777
-3.895390 -3.882904 -3.870419 -3.857933 -3.845272 -3.831702 -3.818132 -3.804562 -3.790992 -3.777422 -3.763852 -3.750282 -3.736712 -3.723160 -3.710158 -3.697157 -3.684155 -3.671154 -3.658152 -3.645151 -3.632150 -3.619148 -3.606147 -3.593145 -3.580144 -3.567142 -3.554141 -3.541140 -3.527622 -3.513845 -3.500068 -3.486291 -3.472513 -3.458736 -3.444959 -3.431182 -3.417405 -3.403627 -3.389850 -3.376073 -3.362296 -3.348518 -3.334741 -3.320964 -3.307187 -3.293409 -3.279589 -3.265749 -3.251908 -3.238068 -3.224228 -3.210388 -3.196531 -3.181954 -3.167376 -3.152798 -3.138220 -3.123643 -3.109065 -3.094487 -3.079910 -3.065332 -3.050754 -3.036176 -3.021599 -3.007021 -2.992443 -2.977866 -2.963288 -2.948710 -2.934133 -2.919555 -2.904977 -2.890399 -2.875822 -2.861244 -2.846666 -2.832089 -2.817459 -2.802392 -2.787326 -2.772260 -2.757194 -2.742127 -2.727061 -2.711995 -2.696929 -2.681862 -2.666796 -2.651730 -2.636663 -2.621597 -2.606531 -2.591465 -2.576398 -2.561332 -2.546266 -2.531200 -2.516133 -2.501067 -2.486001 -2.470934 -2.455948 -2.440973 -2.425998 -2.411023 -2.396048 -2.381073 -2.366292 -2.351647 -2.337003 -2.322359 -2.307715 -2.291669 -2.275392 -2.259114 -2.242837 -2.226560 -2.210283 -2.194006 -2.177729 -2.161452 -2.145174 -2.128897 -2.112620 -2.096343 -2.080066 -2.063789 -2.047512 -2.031234 -2.014957 -1.998680 -1.982403 -1.966126 -1.949849 -1.933572 -1.917295 -1.901017 -1.885248 -1.869896 -1.854544 -1.839192 -1.823840 -1.808487 -1.793135 -1.777783 -1.762431 -1.747079 -1.731727 -1.716375 -1.701022 -1.685670 -1.670318 -1.654966 -1.639614 -1.624262 -1.608910 -1.593557 -1.578205 -1.562853 -1.547501 -1.532149 -1.521020 -1.511133 -1.501247 -1.491404 -1.482873 -1.474343 -1.465812 -1.457282 -1.448751 -1.440221 -1.432718 -1.426489 -1.420260 -1.414031 -1.407802 -1.401572 -1.395343 -1.389114 -1.382885 -1.376656 -1.370427 -1.364198 -1.357968 -1.351739 -1.345510 -1.339281 -1.333052 -1.326823 -1.320593 -1.314364 -1.308135 -1.301906 -1.295677 -1.289448 -1.283219 -1.276989 -1.270760 -1.264531 -1.258302 -1.252073 -1.217674 -1.176971 -1.136268 -1.095565 -1.054862 -1.014159 -0.973456 -0.932753 -0.892050 -0.851347 -0.810644 -0.769941 -0.729238 -0.688535 -0.647832 -0.607129 -0.566426 -0.525723 -0.485020 -0.444202 -0.355365 -0.266528 -0.177692 -0.088855 -0.000018 0.088819 0.177655 0.266492 0.355329 0.444166 0.533003 0.621839 0.710676 0.753441 0.790907 0.828373 0.865839 0.903305 0.940771 0.978237 1.015703 1.053169 1.090635 1.128101 1.165567 1.181560 1.187541 1.193522 1.199503 1.205484 1.211465 1.217446 1.223426 1.229407 1.235388 1.241369 1.247350 1.253331 1.259311 1.265292 1.247213 1.228672 1.210131 1.191590 1.173049 1.154507 1.135966 1.117425 1.108978 1.109813 1.110647 1.111482 1.112316 1.113150 1.113985 1.114819 1.115654 1.116488 1.117323 1.118157 1.118992 1.119826 1.126632 1.140636 1.154641 1.168645 1.182649 1.196654 1.210658 1.224662 1.236737 1.236081 1.235426 1.234770 1.234114 1.233458 1.232802 1.232146 1.231490 1.230835 1.230179 1.229523 1.222063 1.212330 1.202596
-3.895320 -3.882835 -3.870349 -3.857864 -3.845379 -3.832893 -3.819538 -3.805967 -3.792397 -3.778827 -3.765257 -3.751687 -3.738117 -3.724547 -3.710977 -3.697407 -3.684359 -3.671357 -3.658356 -3.645354 -3.632353 -3.619351 -3.606350 -3.593349 -3.580347 -3.567346 -3.554344 -3.541343 -3.528341 -3.514932 -3.501155 -3.487377 -3.473600 -3.459823 -3.446046 -3.432268 -3.418491 -3.404714 -3.390937 -3.377159 -3.363382 -3.349605 -3.335828 -3.322050 -3.308273 -3.294496 -3.280719 -3.266942 -3.253108 -3.239268 -3.225428 -3.211587 -3.197343 -3.182766 -3.168188 -3.153610 -3.139032 -3.124455 -3.109877 -3.095299 -3.080722 -3.066144 -3.051566 -3.036988 -3.022411 -3.007833 -2.993255 -2.978678 -2.964100 -2.949522 -2.934945 -2.920367 -2.905789 -2.891211 -2.876634 -2.862056 -2.847478 -2.832901 -2.818323 -2.803745 -2.789048 -2.773982 -2.758916 -2.743849 -2.728783 -2.713717 -2.698651 -2.683584 -2.668518 -2.653452 -2.638385 -2.623319 -2.608253 -2.593187 -2.578120 -2.563054 -2.547988 -2.532922 -2.517855 -2.502789 -2.487723 -2.472656 -2.457590 -2.442524 -2.427458 -2.412391 -2.397405 -2.382430 -2.367455 -2.352500 -2.337856 -2.323212 -2.308245 -2.291968 -2.275691 -2.259414 -2.243137 -2.226860 -2.210582 -2.194305 -2.178028 -2.161751 -2.145474 -2.129197 -2.112920 -2.096642 -2.080365 -2.064088 -2.047811 -2.031534 -2.015257 -1.998980 -1.982703 -1.966425 -1.950148 -1.933871 -1.917594 -1.901317 -1.885040 -1.868763 -1.853411 -1.838059 -1.822707 -1.807355 -1.792003 -1.776651 -1.761298 -1.745946 -1.730594 -1.715242 -1.699890 -1.684538 -1.669185 -1.653833 -1.638481 -1.623129 -1.607777 -1.592425 -1.577073 -1.561720 -1.546368 -1.531251 -1.521365 -1.511479 -1.501593 -1.491707 -1.481821 -1.472489 -1.463958 -1.455428 -1.446897 -1.438367 -1.429836 -1.421306 -1.412775 -1.404245 -1.395714 -1.388315 -1.382086 -1.375857 -1.369628 -1.363399 -1.357169 -1.350940 -1.344711 -1.338482 -1.332253 -1.326024 -1.319795 -1.313565 -1.307336 -1.301107 -1.294878 -1.288649 -1.282420 -1.276190 -1.269961 -1.263732 -1.257503 -1.251274 -1.245045 -1.238151 -1.197448 -1.156745 -1.116042 -1.075339 -1.034636 -0.993933 -0.953230 -0.912527 -0.871824 -0.831121 -0.790418 -0.749715 -0.709012 -0.668309 -0.627606 -0.586903 -0.546200 -0.505497 -0.464794 -0.424091 -0.383388 -0.310370 -0.221533 -0.132696 -0.043860 0.044977 0.133814 0.222651 0.311488 0.400324 0.489161 0.577998 0.662779 0.700245 0.737711 0.775177 0.812643 0.850109 0.887575 0.925040 0.962506 0.999972 1.037438 1.074904 1.112370 1.149836 1.181185 1.187166 1.193147 1.199128 1.205109 1.211090 1.217070 1.223051 1.229032 1.235013 1.240994 1.246975 1.252956 1.255189 1.236647 1.218106 1.199565 1.181024 1.162483 1.143942 1.125400 1.106859 1.088318 1.069777 1.068426 1.069261 1.070095 1.070930 1.071764 1.072599 1.073433 1.074268 1.075102 1.075937 1.076771 1.077606 1.086658 1.100662 1.114667 1.128671 1.142675 1.156680 1.170684 1.184688 1.198693 1.212697 1.221708 1.221052 1.220397 1.219741 1.219085 1.218429 1.217773 1.217117 1.216461 1.215806 1.206882 1.197149 1.187415
